# .PCD v.7 - Point Cloud Data file format
FIELDS x y z rgb imX imY
SIZE 4 4 4 4 4 4
TYPE F F F F F F
COUNT 1 1 1 1 1 1
WIDTH 830
HEIGHT 1
VIEWPOINT 0 0 0 1 0 0 0
POINTS 830
DATA ascii
-0.0036188802 0.68800002 -0.020506985 1.494223e-38 317 257
-0.0024125867 0.68800002 -0.020506985 1.4850389e-38 318 257
-0.0012062934 0.68800002 -0.020506985 1.4850389e-38 319 257
0 0.68800002 -0.020506985 1.4847867e-38 320 257
0.0012062934 0.68800002 -0.020506985 1.4755671e-38 321 257
0.0024125867 0.68800002 -0.020506985 1.4480159e-38 322 257
0.0036293997 0.69 -0.020566599 1.4480159e-38 323 257
0.0048391996 0.69 -0.020566599 1.4570913e-38 324 257
0.0060577663 0.69099998 -0.020596405 1.3280174e-38 325 257
0.0072903596 0.69300002 -0.020656019 1.0889928e-38 326 257
0.0085054198 0.69300002 -0.020656019 1.0152004e-38 327 257
0.0097345067 0.69400001 -0.020685827 9.9719313e-39 328 257
0.010982879 0.69599998 -0.020745439 1.126267e-38 329 257
0.012220734 0.69700003 -0.020775247 1.2452939e-38 330 257
0.013442807 0.69700003 -0.020775247 1.1807569e-38 331 257
0.01468592 0.69800001 -0.020805053 1.1621376e-38 332 257
0.015909746 0.69800001 -0.020805053 1.1805767e-38 333 257
0.017182667 0.69999999 -0.020864666 1.1991235e-38 334 257
0.018436298 0.70099998 -0.020894472 1.208343e-38 335 257
0.019721493 0.70300001 -0.020954086 1.2635155e-38 336 257
0.020983893 0.704 -0.020983893 1.2727351e-38 337 257
0.022218239 0.704 -0.020983893 1.4108472e-38 338 257
-0.038210396 0.70300001 -0.02218668 2.1020253e-38 289 258
-0.036977798 0.70300001 -0.02218668 1.8340815e-38 290 258
-0.035745207 0.70300001 -0.02218668 1.5390556e-38 291 258
-0.034512613 0.70300001 -0.02218668 1.4821171e-38 292 258
-0.033280019 0.70300001 -0.02218668 1.2608477e-38 293 258
-0.031910665 0.69999999 -0.022091998 1.3969826e-38 294 258
-0.030595668 0.69800001 -0.02202888 1.3601402e-38 295 258
-0.029371841 0.69800001 -0.02202888 1.3421738e-38 296 258
-0.028107686 0.69700003 -0.02199732 1.5357846e-38 297 258
-0.026885614 0.69700003 -0.02199732 1.3637821e-38 298 258
-0.025626717 0.69599998 -0.021965759 1.7049059e-38 299 258
-0.024301201 0.69300002 -0.021871079 1.5770548e-38 300 258
-0.02308614 0.69300002 -0.021871079 1.6047136e-38 301 258
-0.021871079 0.69300002 -0.021871079 1.4762507e-38 302 258
-0.020656019 0.69300002 -0.021871079 1.3840911e-38 303 258
-0.01944096 0.69300002 -0.021871079 9.7853723e-39 304 258
-0.018225901 0.69300002 -0.021871079 8.6790247e-39 305 258
-0.016961746 0.69099998 -0.021807959 1.3085353e-38 306 258
-0.015750192 0.69099998 -0.021807959 1.5205853e-38 307 258
-0.014517599 0.69 -0.021776399 1.1449229e-38 308 258
-0.0133078 0.69 -0.021776399 1.1080805e-38 309 258
-0.012097999 0.69 -0.021776399 1.3741891e-38 310 258
-0.010856641 0.68800002 -0.021713281 1.355786e-38 311 258
-0.0096503468 0.68800002 -0.021713281 1.2545871e-38 312 258
-0.0084440531 0.68800002 -0.021713281 1.217709e-38 313 258
-0.0072377604 0.68800002 -0.021713281 1.1170497e-38 314 258
-0.0060314666 0.68800002 -0.021713281 1.2184649e-38 315 258
-0.0048251734 0.68800002 -0.021713281 1.4111399e-38 316 258
-0.0036188802 0.68800002 -0.021713281 1.3835172e-38 317 258
-0.0024125867 0.68800002 -0.021713281 1.3928437e-38 318 258
-0.0012062934 0.68800002 -0.021713281 1.3836242e-38 319 258
0 0.68800002 -0.021713281 1.2266392e-38 320 258
0.0012062934 0.68800002 -0.021713281 1.1252599e-38 321 258
0.0024195998 0.69 -0.021776399 1.1894013e-38 322 258
0.0036346598 0.69099998 -0.021807959 1.1986208e-38 323 258
0.0048462129 0.69099998 -0.021807959 1.1251164e-38 324 258
0.0060753003 0.69300002 -0.021871079 1.0421764e-38 325 258
0.0072903596 0.69300002 -0.021871079 6.3817122e-39 326 258
0.0085176928 0.69400001 -0.021902639 5.3675617e-39 327 258
0.0097625591 0.69599998 -0.021965759 6.02084e-39 328 258
0.010982879 0.69599998 -0.021965759 8.9711002e-39 329 258
0.012220734 0.69700003 -0.02199732 1.2175992e-38 330 258
0.013442807 0.69700003 -0.02199732 1.11622e-38 331 258
0.01468592 0.69800001 -0.02202888 1.1345512e-38 332 258
0.015955333 0.69999999 -0.022091998 1.1529903e-38 333 258
0.017182667 0.69999999 -0.022091998 1.2173111e-38 334 258
0.018436298 0.70099998 -0.022123558 1.2449339e-38 335 258
0.019721493 0.70300001 -0.02218668 1.2817749e-38 336 258
0.020983893 0.704 -0.022218239 1.3370922e-38 337 258
0.022281358 0.70599997 -0.022281358 1.4844591e-38 338 258
0.023519212 0.70599997 -0.022281358 2.0191937e-38 339 258
-0.036977798 0.70300001 -0.023419274 1.8527374e-38 290 259
-0.035745207 0.70300001 -0.023419274 1.649907e-38 291 259
-0.034512613 0.70300001 -0.023419274 1.5193901e-38 292 259
-0.033280019 0.70300001 -0.023419274 1.1598271e-38 293 259
-0.031956252 0.70099998 -0.023352645 1.4620554e-38 294 259
-0.030595668 0.69800001 -0.023252707 1.3882989e-38 295 259
-0.029371841 0.69800001 -0.023252707 1.3783616e-38 296 259
-0.028107686 0.69700003 -0.023219392 1.2124455e-38 297 259
-0.026885614 0.69700003 -0.023219392 1.0849949e-38 298 259
-0.025626717 0.69599998 -0.023186078 1.8501827e-38 299 259
-0.0244064 0.69599998 -0.023186078 1.512481e-38 300 259
-0.02308614 0.69300002 -0.02308614 1.6507744e-38 301 259
-0.021871079 0.69300002 -0.02308614 1.503873e-38 302 259
-0.020656019 0.69300002 -0.02308614 1.3932381e-38 303 259
-0.01944096 0.69300002 -0.02308614 9.7856904e-39 304 259
-0.018225901 0.69300002 -0.02308614 8.4027559e-39 305 259
-0.016961746 0.69099998 -0.023019511 9.1367238e-39 306 259
-0.015750192 0.69099998 -0.023019511 1.1257225e-38 307 259
-0.014538639 0.69099998 -0.023019511 9.6060257e-39 308 259
-0.013327086 0.69099998 -0.023019511 8.9606563e-39 309 259
-0.012097999 0.69 -0.022986198 1.1440592e-38 310 259
-0.010888199 0.69 -0.022986198 1.0979972e-38 311 259
-0.0096503468 0.68800002 -0.022919573 1.0698367e-38 312 259
-0.0084440531 0.68800002 -0.022919573 9.9608008e-39 313 259
-0.0072377604 0.68800002 -0.022919573 6.5679181e-39 314 259
-0.0060314666 0.68800002 -0.022919573 8.6884176e-39 315 259
-0.0048251734 0.68800002 -0.022919573 1.1442042e-38 316 259
-0.0036188802 0.68800002 -0.022919573 1.1257651e-38 317 259
-0.0024195998 0.69 -0.022986198 1.1168679e-38 318 259
-0.0012097999 0.69 -0.022986198 1.1629658e-38 319 259
0 0.68800002 -0.022919573 1.0058736e-38 320 259
0.0012062934 0.68800002 -0.022919573 7.1084746e-39 321 259
0.0024195998 0.69 -0.022986198 8.0272107e-39 322 259
0.0036346598 0.69099998 -0.023019511 8.0272107e-39 323 259
0.0048462129 0.69099998 -0.023019511 7.1070677e-39 324 259
0.0060753003 0.69300002 -0.02308614 7.1992647e-39 325 259
0.0072903596 0.69300002 -0.02308614 5.6405696e-39 326 259
0.0085176928 0.69400001 -0.023119451 6.5628861e-39 327 259
0.0097625591 0.69599998 -0.023186078 9.0496317e-39 328 259
0.01099866 0.69700003 -0.023219392 1.1261967e-38 329 259
0.012220734 0.69700003 -0.023219392 1.2451502e-38 330 259
0.013462093 0.69800001 -0.023252707 1.1345515e-38 331 259
0.01468592 0.69800001 -0.023252707 1.1345509e-38 332 259
0.015955333 0.69999999 -0.023319334 1.1438064e-38 333 259
0.017207211 0.70099998 -0.023352645 1.1989079e-38 334 259
0.018436298 0.70099998 -0.023352645 1.2173829e-38 335 259
0.019721493 0.70300001 -0.023419274 1.2450042e-38 336 259
0.020983893 0.704 -0.023452586 1.3279803e-38 337 259
0.022281358 0.70599997 -0.023519212 1.548816e-38 338 259
0.023519212 0.70599997 -0.023519212 2.0467082e-38 339 259
-0.037030395 0.704 -0.024686933 1.8066753e-38 290 260
-0.035796054 0.704 -0.024686933 1.6499067e-38 291 260
-0.034512613 0.70300001 -0.024651866 1.6582247e-38 292 260
-0.033280019 0.70300001 -0.024651866 1.4461746e-38 293 260
-0.032047424 0.70300001 -0.024651866 1.4808552e-38 294 260
-0.030683333 0.69999999 -0.024546666 1.3241585e-38 295 260
-0.029455997 0.69999999 -0.024546666 1.4524408e-38 296 260
-0.028148014 0.69800001 -0.024476532 1.3695008e-38 297 260
-0.026885614 0.69700003 -0.024441468 1.3599264e-38 298 260
-0.025663542 0.69700003 -0.024441468 1.9223556e-38 299 260
-0.0244064 0.69599998 -0.0244064 1.4111008e-38 300 260
-0.023119451 0.69400001 -0.024336265 1.6600649e-38 301 260
-0.021871079 0.69300002 -0.024301201 1.5497558e-38 302 260
-0.020656019 0.69300002 -0.024301201 1.4575603e-38 303 260
-0.01944096 0.69300002 -0.024301201 1.337597e-38 304 260
-0.018225901 0.69300002 -0.024301201 1.2361459e-38 305 260
-0.016961746 0.69099998 -0.024231065 1.1803969e-38 306 260
-0.015750192 0.69099998 -0.024231065 1.2173111e-38 307 260
-0.014538639 0.69099998 -0.024231065 1.0060904e-38 308 260
-0.013327086 0.69099998 -0.024231065 9.5080889e-39 309 260
-0.012115533 0.69099998 -0.024231065 9.4148171e-39 310 260
-0.010888199 0.69 -0.024195999 9.6910453e-39 311 260
-0.0096783992 0.69 -0.024195999 1.0516858e-38 312 260
-0.0084686 0.69 -0.024195999 8.6733046e-39 313 260
-0.0072587994 0.69 -0.024195999 4.998803e-39 314 260
-0.0060489997 0.69 -0.024195999 4.7218573e-39 315 260
-0.0048251734 0.68800002 -0.024125867 7.8392448e-39 316 260
-0.0036188802 0.68800002 -0.024125867 9.1299836e-39 317 260
-0.0024231065 0.69099998 -0.024231065 7.8590129e-39 318 260
-0.0012115532 0.69099998 -0.024231065 9.2419473e-39 319 260
0 0.69 -0.024195999 1.1075055e-38 320 260
0.0012097999 0.69 -0.024195999 1.1075055e-38 321 260
0.0024231065 0.69099998 -0.024231065 1.1624623e-38 322 260
0.0036346598 0.69099998 -0.024231065 1.144023e-38 323 260
0.0048462129 0.69099998 -0.024231065 1.1347679e-38 324 260
0.0060753003 0.69300002 -0.024301201 1.1900852e-38 325 260
0.0072903596 0.69300002 -0.024301201 1.3188349e-38 326 260
0.0085176928 0.69400001 -0.024336265 1.3280903e-38 327 260
0.0097625591 0.69599998 -0.0244064 1.3276584e-38 328 260
0.01099866 0.69700003 -0.024441468 1.2999638e-38 329 260
0.012220734 0.69700003 -0.024441468 1.2266745e-38 330 260
0.013462093 0.69800001 -0.024476532 1.1805767e-38 331 260
0.014727999 0.69999999 -0.024546666 1.1346584e-38 332 260
0.015955333 0.69999999 -0.024546666 1.1069997e-38 333 260
0.017207211 0.70099998 -0.024581732 1.2173105e-38 334 260
0.018488899 0.70300001 -0.024651866 1.2449692e-38 335 260
0.019749546 0.704 -0.024686933 1.2450039e-38 336 260
0.020983893 0.704 -0.024686933 1.3925528e-38 337 260
0.022218239 0.704 -0.024686933 1.6043131e-38 338 260
0.023452586 0.704 -0.024686933 2.0376686e-38 339 260
-0.039667413 0.70700002 -0.02603174 2.249646e-38 288 261
-0.038264744 0.704 -0.02592128 2.0928774e-38 289 261
-0.037030395 0.704 -0.02592128 1.760398e-38 290 261
-0.035796054 0.704 -0.02592128 1.5760068e-38 291 261
-0.034561705 0.704 -0.02592128 1.6216001e-38 292 261
-0.033280019 0.70300001 -0.025884461 1.6769175e-38 293 261
-0.032047424 0.70300001 -0.025884461 1.5653803e-38 294 261
-0.030727165 0.70099998 -0.025810819 1.233476e-38 295 261
-0.029455997 0.69999999 -0.025773998 1.4530892e-38 296 261
-0.028148014 0.69800001 -0.025700359 1.2318557e-38 297 261
-0.026885614 0.69700003 -0.025663542 1.3776455e-38 298 261
-0.025663542 0.69700003 -0.025663542 2.0045758e-38 299 261
-0.0244064 0.69599998 -0.025626717 1.4658421e-38 300 261
-0.023119451 0.69400001 -0.025553079 1.7885268e-38 301 261
-0.021902639 0.69400001 -0.025553079 1.5772713e-38 302 261
-0.020685827 0.69400001 -0.025553079 1.4851117e-38 303 261
-0.019469013 0.69400001 -0.025553079 1.2364368e-38 304 261
-0.018225901 0.69300002 -0.02551626 1.1811553e-38 305 261
-0.01701084 0.69300002 -0.02551626 1.2178538e-38 306 261
-0.015795778 0.69300002 -0.02551626 1.2362569e-38 307 261
-0.014580719 0.69300002 -0.02551626 1.1533519e-38 308 261
-0.013327086 0.69099998 -0.025442619 1.1533519e-38 309 261
-0.012115533 0.69099998 -0.025442619 1.2452951e-38 310 261
-0.01090398 0.69099998 -0.025442619 1.2729897e-38 311 261
-0.0096924258 0.69099998 -0.025442619 1.3005402e-38 312 261
-0.008480873 0.69099998 -0.025442619 1.2267837e-38 313 261
-0.0072693196 0.69099998 -0.025442619 1.0244219e-38 314 261
-0.0060577663 0.69099998 -0.025442619 1.061336e-38 315 261
-0.0048462129 0.69099998 -0.025442619 1.1161865e-38 316 261
-0.0036346598 0.69099998 -0.025442619 1.1069669e-38 317 261
-0.0024231065 0.69099998 -0.025442619 1.0247466e-38 318 261
-0.0012115532 0.69099998 -0.025442619 1.0985031e-38 319 261
0 0.69 -0.025405798 1.2546596e-38 320 261
0.0012097999 0.69 -0.025405798 1.2546596e-38 321 261
0.0024231065 0.69099998 -0.025442619 1.2084892e-38 322 261
0.0036451798 0.69300002 -0.02551626 1.2177087e-38 323 261
0.00486024 0.69300002 -0.02551626 1.1626786e-38 324 261
0.0060753003 0.69300002 -0.02551626 1.1995569e-38 325 261
0.0073008798 0.69400001 -0.025553079 1.2914281e-38 326 261
0.0085176928 0.69400001 -0.025553079 1.273025e-38 327 261
0.0097625591 0.69599998 -0.025626717 1.2818846e-38 328 261
0.01099866 0.69700003 -0.025663542 1.2265673e-38 329 261
0.012220734 0.69700003 -0.025663542 1.1900837e-38 330 261
0.013462093 0.69800001 -0.025700359 1.162389e-38 331 261
0.014727999 0.69999999 -0.025773998 1.1346937e-38 332 261
0.015955333 0.69999999 -0.025773998 1.1162547e-38 333 261
0.017207211 0.70099998 -0.025810819 1.2266377e-38 334 261
0.018488899 0.70300001 -0.025884461 1.2450768e-38 335 261
0.019749546 0.704 -0.02592128 1.2726629e-38 336 261
0.020983893 0.704 -0.02592128 1.4017368e-38 337 261
0.022218239 0.704 -0.02592128 1.558504e-38 338 261
0.023652466 0.70999998 -0.026142199 2.001079e-38 339 261
-0.039667413 0.70700002 -0.027271347 2.2312791e-38 288 262
-0.038427804 0.70700002 -0.027271347 2.1022053e-38 289 262
-0.037030395 0.704 -0.027155625 1.7050076e-38 290 262
-0.035796054 0.704 -0.027155625 1.3731034e-38 291 262
-0.034561705 0.704 -0.027155625 1.6027291e-38 292 262
-0.03332736 0.704 -0.027155625 1.7041802e-38 293 262
-0.032047424 0.70300001 -0.027117053 1.7044323e-38 294 262
-0.030727165 0.70099998 -0.027039904 1.5661029e-38 295 262
-0.029498078 0.70099998 -0.027039904 1.5834977e-38 296 262
-0.028228667 0.69999999 -0.027001332 1.1317391e-38 297 262
-0.026924185 0.69800001 -0.026924185 1.3868303e-38 298 262
-0.025663542 0.69700003 -0.026885614 2.0137247e-38 299 262
-0.024441468 0.69700003 -0.026885614 1.484209e-38 300 262
-0.023186078 0.69599998 -0.026847038 1.8161132e-38 301 262
-0.021902639 0.69400001 -0.026769891 1.5865262e-38 302 262
-0.020685827 0.69400001 -0.026769891 1.4759274e-38 303 262
-0.019469013 0.69400001 -0.026769891 1.1627153e-38 304 262
-0.018225901 0.69300002 -0.02673132 1.0521165e-38 305 262
-0.01701084 0.69300002 -0.02673132 1.1441326e-38 306 262
-0.015795778 0.69300002 -0.02673132 1.180975e-38 307 262
-0.014580719 0.69300002 -0.02673132 1.1902654e-38 308 262
-0.01336566 0.69300002 -0.02673132 1.2087046e-38 309 262
-0.012115533 0.69099998 -0.026654173 1.3097955e-38 310 262
-0.01090398 0.69099998 -0.026654173 1.3097955e-38 311 262
-0.0096924258 0.69099998 -0.026654173 1.2915362e-38 312 262
-0.008480873 0.69099998 -0.026654173 1.3191588e-38 313 262
-0.0072693196 0.69099998 -0.026654173 1.3651848e-38 314 262
-0.0060577663 0.69099998 -0.026654173 1.3006478e-38 315 262
-0.0048462129 0.69099998 -0.026654173 1.2631583e-38 316 262
-0.0036346598 0.69099998 -0.026654173 1.2078411e-38 317 262
-0.0024231065 0.69099998 -0.026654173 1.0887073e-38 318 262
-0.0012115532 0.69099998 -0.026654173 1.0979269e-38 319 262
0 0.69099998 -0.026654173 1.162284e-38 320 262
0.0012115532 0.69099998 -0.026654173 1.1807232e-38 321 262
0.00243012 0.69300002 -0.02673132 1.1900499e-38 322 262
0.0036451798 0.69300002 -0.02673132 1.2269642e-38 323 262
0.00486024 0.69300002 -0.02673132 1.1352362e-38 324 262
0.0060840664 0.69400001 -0.026769891 1.1444916e-38 325 262
0.0073008798 0.69400001 -0.026769891 1.1626786e-38 326 262
0.0085422397 0.69599998 -0.026847038 1.1534591e-38 327 262
0.0097765867 0.69700003 -0.026885614 1.1530628e-38 328 262
0.01099866 0.69700003 -0.026885614 1.0792704e-38 329 262
0.012238266 0.69800001 -0.026924185 1.144023e-38 330 262
0.013462093 0.69800001 -0.026924185 1.144023e-38 331 262
0.014727999 0.69999999 -0.027001332 1.1532777e-38 332 262
0.015978126 0.70099998 -0.027039904 1.1624973e-38 333 262
0.017256306 0.70300001 -0.027117053 1.2175979e-38 334 262
0.018515198 0.704 -0.027155625 1.2268175e-38 335 262
0.019749546 0.704 -0.027155625 1.2636231e-38 336 262
0.021043506 0.70599997 -0.027232772 1.3558188e-38 337 262
0.022407599 0.70999998 -0.027387066 1.5124422e-38 338 262
0.023652466 0.70999998 -0.027387066 2.001079e-38 339 262
-0.039667413 0.70700002 -0.028510952 2.2403908e-38 288 263
-0.038427804 0.70700002 -0.028510952 2.1205365e-38 289 263
-0.037135597 0.70599997 -0.028470624 1.723627e-38 290 263
-0.035897743 0.70599997 -0.028470624 1.3548086e-38 291 263
-0.034561705 0.704 -0.028389972 1.5011344e-38 292 263
-0.03332736 0.704 -0.028389972 1.676306e-38 293 263
-0.032047424 0.70300001 -0.028349647 1.658695e-38 294 263
-0.030814834 0.70300001 -0.028349647 1.6125973e-38 295 263
-0.029498078 0.70099998 -0.028268991 1.6303883e-38 296 263
-0.028228667 0.69999999 -0.028228667 1.0956537e-38 297 263
-0.026924185 0.69800001 -0.028148014 1.3408414e-38 298 263
-0.025700359 0.69800001 -0.028148014 2.0138695e-38 299 263
-0.024441468 0.69700003 -0.028107686 1.5116879e-38 300 263
-0.023186078 0.69599998 -0.028067358 1.8528117e-38 301 263
-0.021965759 0.69599998 -0.028067358 1.5865615e-38 302 263
-0.020745439 0.69599998 -0.028067358 1.4667072e-38 303 263
-0.019469013 0.69400001 -0.027986705 1.2824611e-38 304 263
-0.0182522 0.69400001 -0.027986705 1.1902654e-38 305 263
-0.017035386 0.69400001 -0.027986705 1.1995216e-38 306 263
-0.015795778 0.69300002 -0.027946379 1.2179607e-38 307 263
-0.014580719 0.69300002 -0.027946379 1.2364358e-38 308 263
-0.01336566 0.69300002 -0.027946379 1.2271804e-38 309 263
-0.012150601 0.69300002 -0.027946379 1.2548021e-38 310 263
-0.010935539 0.69300002 -0.027946379 1.2640217e-38 311 263
-0.0097204801 0.69300002 -0.027946379 1.3281267e-38 312 263
-0.0085054198 0.69300002 -0.027946379 1.2451505e-38 313 263
-0.0072903596 0.69300002 -0.027946379 1.1719339e-38 314 263
-0.0060753003 0.69300002 -0.027946379 1.1719339e-38 315 263
-0.00486024 0.69300002 -0.027946379 1.2173123e-38 316 263
-0.0036451798 0.69300002 -0.027946379 1.1896536e-38 317 263
-0.00243012 0.69300002 -0.027946379 1.1529919e-38 318 263
-0.00121506 0.69300002 -0.027946379 1.1437723e-38 319 263
0 0.69300002 -0.027946379 1.1714667e-38 320 263
0.00121506 0.69300002 -0.027946379 1.2175644e-38 321 263
0.00243012 0.69300002 -0.027946379 1.2085967e-38 322 263
0.0036504399 0.69400001 -0.027986705 1.2085967e-38 323 263
0.0048672534 0.69400001 -0.027986705 1.0525481e-38 324 263
0.0060840664 0.69400001 -0.027986705 1.0617676e-38 325 263
0.0073219193 0.69599998 -0.028067358 1.1076134e-38 326 263
0.0085422397 0.69599998 -0.028067358 1.1076134e-38 327 263
0.0097765867 0.69700003 -0.028107686 1.1807213e-38 328 263
0.01101444 0.69800001 -0.028148014 1.1346234e-38 329 263
0.012238266 0.69800001 -0.028148014 1.1438429e-38 330 263
0.013462093 0.69800001 -0.028148014 1.1622821e-38 331 263
0.014727999 0.69999999 -0.028228667 1.1809004e-38 332 263
0.015978126 0.70099998 -0.028268991 1.2178147e-38 333 263
0.017256306 0.70300001 -0.028349647 1.2268891e-38 334 263
0.018515198 0.704 -0.028389972 1.2361445e-38 335 263
0.019805651 0.70599997 -0.028470624 1.2636952e-38 336 263
0.021043506 0.70599997 -0.028470624 1.3097928e-38 337 263
0.022312919 0.70700002 -0.028510952 1.5031503e-38 338 263
0.023552528 0.70700002 -0.028510952 2.0102263e-38 339 263
0.024792133 0.70700002 -0.028510952 2.1943283e-38 340 263
-0.038427804 0.70700002 -0.029750559 2.1388677e-38 289 264
-0.037188202 0.70700002 -0.029750559 1.8066753e-38 290 264
-0.035948593 0.70700002 -0.029750559 1.4194537e-38 291 264
-0.034561705 0.704 -0.029624319 1.3809206e-38 292 264
-0.03332736 0.704 -0.029624319 1.4454576e-38 293 264
-0.032093015 0.704 -0.029624319 1.5291539e-38 294 264
-0.030814834 0.70300001 -0.029582238 1.5752877e-38 295 264
-0.029582238 0.70300001 -0.029582238 1.6121657e-38 296 264
-0.028268991 0.70099998 -0.029498078 1.1050898e-38 297 264
-0.027001332 0.69999999 -0.029455997 1.3778638e-38 298 264
-0.025700359 0.69800001 -0.029371841 1.986355e-38 299 264
-0.024441468 0.69700003 -0.02932976 1.5024683e-38 300 264
-0.023219392 0.69700003 -0.02932976 1.8528117e-38 301 264
-0.021965759 0.69599998 -0.029287677 1.595781e-38 302 264
-0.020745439 0.69599998 -0.029287677 1.4851823e-38 303 264
-0.019525118 0.69599998 -0.029287677 1.3193037e-38 304 264
-0.0182522 0.69400001 -0.029203519 1.2547668e-38 305 264
-0.017035386 0.69400001 -0.029203519 1.227181e-38 306 264
-0.015818574 0.69400001 -0.029203519 1.2364005e-38 307 264
-0.01460176 0.69400001 -0.029203519 1.2181412e-38 308 264
-0.013384946 0.69400001 -0.029203519 1.2088858e-38 309 264
-0.012168133 0.69400001 -0.029203519 1.2824976e-38 310 264
-0.01095132 0.69400001 -0.029203519 1.2917172e-38 311 264
-0.0097204801 0.69300002 -0.029161438 1.3558581e-38 312 264
-0.0085054198 0.69300002 -0.029161438 1.2267843e-38 313 264
-0.0072903596 0.69300002 -0.029161438 9.6949983e-39 314 264
-0.0060753003 0.69300002 -0.029161438 1.0524399e-38 315 264
-0.00486024 0.69300002 -0.029161438 1.1990175e-38 316 264
-0.0036451798 0.69300002 -0.029161438 1.189798e-38 317 264
-0.00243012 0.69300002 -0.029161438 1.1807213e-38 318 264
-0.00121506 0.69300002 -0.029161438 1.1622821e-38 319 264
0 0.69300002 -0.029161438 1.1807932e-38 320 264
0.0012168133 0.69400001 -0.029203519 1.2268909e-38 321 264
0.0024336267 0.69400001 -0.029203519 1.2269636e-38 322 264
0.0036504399 0.69400001 -0.029203519 1.2085244e-38 323 264
0.0048672534 0.69400001 -0.029203519 1.0431487e-38 324 264
0.0061015999 0.69599998 -0.029287677 1.0708074e-38 325 264
0.0073219193 0.69599998 -0.029287677 1.1076134e-38 326 264
0.0085545136 0.69700003 -0.02932976 1.1076134e-38 327 264
0.0097765867 0.69700003 -0.02932976 1.2450783e-38 328 264
0.01101444 0.69800001 -0.029371841 1.1621023e-38 329 264
0.012238266 0.69800001 -0.029371841 1.088489e-38 330 264
0.013500666 0.69999999 -0.029455997 1.1622455e-38 331 264
0.014749039 0.70099998 -0.029498078 1.1991598e-38 332 264
0.016023712 0.70300001 -0.029582238 1.2360739e-38 333 264
0.017280852 0.704 -0.029624319 1.2360736e-38 334 264
0.018515198 0.704 -0.029624319 1.2453292e-38 335 264
0.019805651 0.70599997 -0.029708479 1.2912462e-38 336 264
0.021043506 0.70599997 -0.029708479 1.3189408e-38 337 264
0.022312919 0.70700002 -0.029750559 1.5123696e-38 338 264
0.023552528 0.70700002 -0.029750559 2.0010064e-38 339 264
-0.037188202 0.70700002 -0.030990168 1.8435532e-38 290 265
-0.035948593 0.70700002 -0.030990168 1.447112e-38 291 265
-0.034561705 0.704 -0.030858666 1.3625526e-38 292 265
-0.03332736 0.704 -0.030858666 1.2703209e-38 293 265
-0.032093015 0.704 -0.030858666 1.4075361e-38 294 265
-0.030858666 0.704 -0.030858666 1.5735241e-38 295 265
-0.029582238 0.70300001 -0.030814834 1.5372213e-38 296 265
-0.028268991 0.70099998 -0.030727165 1.2145725e-38 297 265
-0.027001332 0.69999999 -0.030683333 1.4056299e-38 298 265
-0.025700359 0.69800001 -0.030595668 1.9588395e-38 299 265
-0.024476532 0.69800001 -0.030595668 1.5024683e-38 300 265
-0.023219392 0.69700003 -0.030551834 1.8620671e-38 301 265
-0.02199732 0.69700003 -0.030551834 1.605001e-38 302 265
-0.020775247 0.69700003 -0.030551834 1.4851467e-38 303 265
-0.019553173 0.69700003 -0.030551834 1.2640582e-38 304 265
-0.018304799 0.69599998 -0.030507999 1.1903017e-38 305 265
-0.017084479 0.69599998 -0.030507999 1.181155e-38 306 265
-0.015818574 0.69400001 -0.030420333 1.1995942e-38 307 265
-0.01460176 0.69400001 -0.030420333 1.1447807e-38 308 265
-0.013384946 0.69400001 -0.030420333 1.1447807e-38 309 265
-0.012168133 0.69400001 -0.030420333 1.2824979e-38 310 265
-0.01095132 0.69400001 -0.030420333 1.2824979e-38 311 265
-0.0097345067 0.69400001 -0.030420333 1.3283436e-38 312 265
-0.0085054198 0.69300002 -0.0303765 1.282246e-38 313 265
-0.0072903596 0.69300002 -0.0303765 1.1166178e-38 314 265
-0.0060840664 0.69400001 -0.030420333 1.0981787e-38 315 265
-0.00486024 0.69300002 -0.0303765 1.1715036e-38 316 265
-0.0036451798 0.69300002 -0.0303765 1.1807232e-38 317 265
-0.00243012 0.69300002 -0.0303765 1.1532077e-38 318 265
-0.0012168133 0.69400001 -0.030420333 1.1347325e-38 319 265
0 0.69400001 -0.030420333 1.2177797e-38 320 265
0.0012168133 0.69400001 -0.030420333 1.2546219e-38 321 265
0.0024406398 0.69599998 -0.030507999 1.2546575e-38 322 265
0.0036609597 0.69599998 -0.030507999 1.2362185e-38 323 265
0.0048812795 0.69599998 -0.030507999 1.1718259e-38 324 265
0.0061015999 0.69599998 -0.030507999 1.1718259e-38 325 265
0.00733244 0.69700003 -0.030551834 9.9730244e-39 326 265
0.0085545136 0.69700003 -0.030551834 1.0618394e-38 327 265
0.0097765867 0.69700003 -0.030551834 1.3094358e-38 328 265
0.01101444 0.69800001 -0.030595668 1.2172402e-38 329 265
0.012238266 0.69800001 -0.030595668 1.1347663e-38 330 265
0.013500666 0.69999999 -0.030683333 1.1716087e-38 331 265
0.014791119 0.70300001 -0.030814834 1.2267098e-38 332 265
0.016046507 0.704 -0.030858666 1.2543685e-38 333 265
0.017280852 0.704 -0.030858666 1.2543685e-38 334 265
0.018567799 0.70599997 -0.030946331 1.2635881e-38 335 265
0.019833706 0.70700002 -0.030990168 1.2819549e-38 336 265
0.021073313 0.70700002 -0.030990168 1.3741507e-38 337 265
0.022344479 0.708 -0.031034 1.5584321e-38 338 265
0.023585839 0.708 -0.031034 2.0009711e-38 339 265
-0.0372408 0.708 -0.03227536 1.8346211e-38 290 266
-0.035948593 0.70700002 -0.032229774 1.4565831e-38 291 266
-0.034659892 0.70599997 -0.032184184 1.4373867e-38 292 266
-0.033422034 0.70599997 -0.032184184 1.1792389e-38 293 266
-0.032184184 0.70599997 -0.032184184 1.3060804e-38 294 266
-0.030858666 0.704 -0.032093015 1.2691662e-38 295 266
-0.029624319 0.704 -0.032093015 1.4255031e-38 296 266
-0.028349647 0.70300001 -0.032047424 1.3240879e-38 297 266
-0.027039904 0.70099998 -0.031956252 1.4058803e-38 298 266
-0.025773998 0.69999999 -0.031910665 1.9037367e-38 299 266
-0.024476532 0.69800001 -0.031819493 1.5116879e-38 300 266
-0.023219392 0.69700003 -0.03177391 1.8712867e-38 301 266
-0.02199732 0.69700003 -0.03177391 1.6050013e-38 302 266
-0.020775247 0.69700003 -0.03177391 1.4943665e-38 303 266
-0.019553173 0.69700003 -0.03177391 1.2548018e-38 304 266
-0.018331099 0.69700003 -0.03177391 1.1442029e-38 305 266
-0.017084479 0.69599998 -0.031728316 1.1350923e-38 306 266
-0.015864158 0.69599998 -0.031728316 1.1719705e-38 307 266
-0.01460176 0.69400001 -0.031637147 1.1445289e-38 308 266
-0.013384946 0.69400001 -0.031637147 1.1353093e-38 309 266
-0.012168133 0.69400001 -0.031637147 1.1536405e-38 310 266
-0.01095132 0.69400001 -0.031637147 1.1813352e-38 311 266
-0.0097345067 0.69400001 -0.031637147 1.2730633e-38 312 266
-0.0085176928 0.69400001 -0.031637147 1.2915024e-38 313 266
-0.0073008798 0.69400001 -0.031637147 1.1628604e-38 314 266
-0.0060840664 0.69400001 -0.031637147 1.0891039e-38 315 266
-0.0048672534 0.69400001 -0.031637147 1.0706642e-38 316 266
-0.0036504399 0.69400001 -0.031637147 1.1075783e-38 317 266
-0.0024336267 0.69400001 -0.031637147 1.1441326e-38 318 266
-0.0012168133 0.69400001 -0.031637147 1.1441326e-38 319 266
0 0.69400001 -0.031637147 1.2547665e-38 320 266
0.0012203199 0.69599998 -0.031728316 1.2640219e-38 321 266
0.0024406398 0.69599998 -0.031728316 1.2362188e-38 322 266
0.0036609597 0.69599998 -0.031728316 1.2269992e-38 323 266
0.0048812795 0.69599998 -0.031728316 1.2360753e-38 324 266
0.0061015999 0.69599998 -0.031728316 1.2360753e-38 325 266
0.00733244 0.69700003 -0.03177391 1.1441323e-38 326 266
0.0085545136 0.69700003 -0.03177391 1.171755e-38 327 266
0.0097765867 0.69700003 -0.03177391 1.2913928e-38 328 266
0.01101444 0.69800001 -0.031819493 1.2268559e-38 329 266
0.012273333 0.69999999 -0.031910665 1.2176345e-38 330 266
0.013519952 0.70099998 -0.031956252 1.2084149e-38 331 266
0.014812159 0.704 -0.032093015 1.2450771e-38 332 266
0.016092092 0.70599997 -0.032184184 1.2634802e-38 333 266
0.017329946 0.70599997 -0.032184184 1.2544407e-38 334 266
0.018567799 0.70599997 -0.032184184 1.2636604e-38 335 266
0.019833706 0.70700002 -0.032229774 1.3462765e-38 336 266
0.021103119 0.708 -0.03227536 1.438508e-38 337 266
0.022344479 0.708 -0.03227536 1.5677238e-38 338 266
0.023685781 0.71100003 -0.032412119 1.9918597e-38 339 266
-0.0372408 0.708 -0.033516716 1.8716804e-38 290 267
-0.03599944 0.708 -0.033516716 1.6412274e-38 291 267
-0.034708988 0.70700002 -0.033469379 1.7239156e-38 292 267
-0.033469379 0.70700002 -0.033469379 1.613281e-38 293 267
-0.032184184 0.70599997 -0.033422034 1.6029795e-38 294 267
-0.030858666 0.704 -0.03332736 1.2802948e-38 295 267
-0.029624319 0.704 -0.03332736 1.3610009e-38 296 267
-0.028349647 0.70300001 -0.033280019 1.1950846e-38 297 267
-0.027039904 0.70099998 -0.03318534 1.3324092e-38 298 267
-0.025773998 0.69999999 -0.033137999 1.8579243e-38 299 267
-0.024546666 0.69999999 -0.033137999 1.5116879e-38 300 267
-0.023252707 0.69800001 -0.033043321 1.8620671e-38 301 267
-0.02199732 0.69700003 -0.03299598 1.5957457e-38 302 267
-0.020775247 0.69700003 -0.03299598 1.4943665e-38 303 267
-0.019581227 0.69800001 -0.033043321 1.2732412e-38 304 267
-0.018331099 0.69700003 -0.03299598 1.2179238e-38 305 267
-0.017109027 0.69700003 -0.03299598 1.2638067e-38 306 267
-0.015886955 0.69700003 -0.03299598 1.2914655e-38 307 267
-0.014643839 0.69599998 -0.032948639 1.1447807e-38 308 267
-0.013423519 0.69599998 -0.032948639 1.0433654e-38 309 267
-0.0122032 0.69599998 -0.032948639 1.0065594e-38 310 267
-0.01095132 0.69400001 -0.032853961 1.1356333e-38 311 267
-0.0097345067 0.69400001 -0.032853961 1.2366886e-38 312 267
-0.0085176928 0.69400001 -0.032853961 1.1906267e-38 313 267
-0.0073008798 0.69400001 -0.032853961 1.1446008e-38 314 267
-0.0060840664 0.69400001 -0.032853961 1.1446008e-38 315 267
-0.0048672534 0.69400001 -0.032853961 1.0803512e-38 316 267
-0.0036504399 0.69400001 -0.032853961 1.0803512e-38 317 267
-0.0024336267 0.69400001 -0.032853961 1.144456e-38 318 267
-0.0012203199 0.69599998 -0.032948639 1.1352364e-38 319 267
0 0.69700003 -0.03299598 1.2547668e-38 320 267
0.0012220733 0.69700003 -0.03299598 1.2179244e-38 321 267
0.0024441467 0.69700003 -0.03299598 1.2545503e-38 322 267
0.00366622 0.69700003 -0.03299598 1.2545503e-38 323 267
0.0048882933 0.69700003 -0.03299598 1.2085611e-38 324 267
0.0061103669 0.69700003 -0.03299598 1.190158e-38 325 267
0.00733244 0.69700003 -0.03299598 1.1717906e-38 326 267
0.0085545136 0.69700003 -0.03299598 1.1533875e-38 327 267
0.0097906133 0.69800001 -0.033043321 1.2177441e-38 328 267
0.011045999 0.69999999 -0.033137999 1.2362191e-38 329 267
0.012273333 0.69999999 -0.033137999 1.2820998e-38 330 267
0.013558527 0.70300001 -0.033280019 1.2636248e-38 331 267
0.014812159 0.704 -0.03332736 1.2269615e-38 332 267
0.016092092 0.70599997 -0.033422034 1.1900834e-38 333 267
0.017354494 0.70700002 -0.033469379 1.2543685e-38 334 267
0.0186204 0.708 -0.033516716 1.3465283e-38 335 267
0.01986176 0.708 -0.033516716 1.42936e-38 336 267
0.021162732 0.70999998 -0.033611398 1.42936e-38 337 267
0.022407599 0.70999998 -0.033611398 1.5492125e-38 338 267
0.023685781 0.71100003 -0.033658739 2.0101907e-38 339 267
0.024932399 0.71100003 -0.033658739 2.2219513e-38 340 267
-0.037345998 0.70999998 -0.034856264 1.8533858e-38 290 268
-0.03599944 0.708 -0.034758076 1.6505554e-38 291 268
-0.034758076 0.708 -0.034758076 1.7058378e-38 292 268
-0.033469379 0.70700002 -0.034708988 1.6689596e-38 293 268
-0.032229774 0.70700002 -0.034708988 1.5949494e-38 294 268
-0.030946331 0.70599997 -0.034659892 1.4842787e-38 295 268
-0.029624319 0.704 -0.034561705 1.4735078e-38 296 268
-0.028389972 0.704 -0.034561705 1.0770307e-38 297 268
-0.027117053 0.70300001 -0.034512613 1.085604e-38 298 268
-0.025773998 0.69999999 -0.034365334 1.4635702e-38 299 268
-0.024546666 0.69999999 -0.034365334 1.5115807e-38 300 268
-0.023252707 0.69800001 -0.034267146 1.8988023e-38 301 268
-0.02202888 0.69800001 -0.034267146 1.6050729e-38 302 268
-0.020805053 0.69800001 -0.034267146 1.4944381e-38 303 268
-0.019581227 0.69800001 -0.034267146 1.3101918e-38 304 268
-0.0183574 0.69800001 -0.034267146 1.2640938e-38 305 268
-0.017133573 0.69800001 -0.034267146 1.2364005e-38 306 268
-0.015909746 0.69800001 -0.034267146 1.2640232e-38 307 268
-0.01466488 0.69700003 -0.034218054 1.2272173e-38 308 268
-0.013442807 0.69700003 -0.034218054 1.1995944e-38 309 268
-0.0122032 0.69599998 -0.034168959 1.1628601e-38 310 268
-0.010982879 0.69599998 -0.034168959 1.1720797e-38 311 268
-0.0097625591 0.69599998 -0.034168959 1.2457288e-38 312 268
-0.0085422397 0.69599998 -0.034168959 1.1996312e-38 313 268
-0.0073219193 0.69599998 -0.034168959 1.1720797e-38 314 268
-0.0061015999 0.69599998 -0.034168959 1.1628601e-38 315 268
-0.0048812795 0.69599998 -0.034168959 1.1721506e-38 316 268
-0.00366622 0.69700003 -0.034218054 1.1628951e-38 317 268
-0.0024441467 0.69700003 -0.034218054 1.1627156e-38 318 268
-0.0012220733 0.69700003 -0.034218054 1.1534961e-38 319 268
0 0.69700003 -0.034218054 1.1719352e-38 320 268
0.0012220733 0.69700003 -0.034218054 1.1719352e-38 321 268
0.0024441467 0.69700003 -0.034218054 1.2363272e-38 322 268
0.00366622 0.69700003 -0.034218054 1.2363272e-38 323 268
0.0048882933 0.69700003 -0.034218054 1.2179594e-38 324 268
0.0061103669 0.69700003 -0.034218054 1.1994844e-38 325 268
0.0073429602 0.69800001 -0.034267146 1.2360753e-38 326 268
0.0085667865 0.69800001 -0.034267146 1.2360753e-38 327 268
0.0098186666 0.69999999 -0.034365334 1.2178513e-38 328 268
0.011045999 0.69999999 -0.034365334 1.2270708e-38 329 268
0.012290866 0.70099998 -0.034414422 1.227034e-38 330 268
0.013577812 0.704 -0.034561705 1.2178144e-38 331 268
0.014812159 0.704 -0.034561705 1.2453286e-38 332 268
0.016092092 0.70599997 -0.034659892 1.2453286e-38 333 268
0.017354494 0.70700002 -0.034708988 1.3557832e-38 334 268
0.0186204 0.708 -0.034758076 1.3557832e-38 335 268
0.019917866 0.70999998 -0.034856264 1.3374519e-38 336 268
0.021162732 0.70999998 -0.034856264 1.3466715e-38 337 268
0.022439159 0.71100003 -0.034905359 1.5215896e-38 338 268
0.023685781 0.71100003 -0.034905359 2.0102263e-38 339 268
0.024932399 0.71100003 -0.034905359 2.2403544e-38 340 268
-0.037345998 0.70999998 -0.036101133 1.8533495e-38 290 269
-0.03599944 0.708 -0.03599944 1.6504832e-38 291 269
-0.034758076 0.708 -0.03599944 1.6046391e-38 292 269
-0.033516716 0.708 -0.03599944 1.5585773e-38 293 269
-0.032229774 0.70700002 -0.035948593 1.4850018e-38 294 269
-0.030946331 0.70599997 -0.035897743 1.5956366e-38 295 269
-0.029708479 0.70599997 -0.035897743 1.8160766e-38 296 269
-0.028389972 0.704 -0.035796054 1.5026115e-38 297 269
-0.027117053 0.70300001 -0.035745207 1.2074751e-38 298 269
-0.025773998 0.69999999 -0.035592664 1.1060957e-38 299 269
-0.024546666 0.69999999 -0.035592664 1.4105957e-38 300 269
-0.023252707 0.69800001 -0.035490975 1.8438792e-38 301 269
-0.02202888 0.69800001 -0.035490975 1.5867417e-38 302 269
-0.020805053 0.69800001 -0.035490975 1.4761069e-38 303 269
-0.019581227 0.69800001 -0.035490975 1.3377431e-38 304 269
-0.0183574 0.69800001 -0.035490975 1.2639866e-38 305 269
-0.017133573 0.69800001 -0.035490975 1.2548039e-38 306 269
-0.015909746 0.69800001 -0.035490975 1.273243e-38 307 269
-0.01466488 0.69700003 -0.035440128 1.2457639e-38 308 269
-0.013442807 0.69700003 -0.035440128 1.2642031e-38 309 269
-0.012220734 0.69700003 -0.035440128 1.2089579e-38 310 269
-0.010982879 0.69599998 -0.035389278 1.144421e-38 311 269
-0.0097625591 0.69599998 -0.035389278 1.1536052e-38 312 269
-0.0085422397 0.69599998 -0.035389278 1.1812999e-38 313 269
-0.0073219193 0.69599998 -0.035389278 1.1997384e-38 314 269
-0.006119133 0.69800001 -0.035490975 1.1813352e-38 315 269
-0.0048953067 0.69800001 -0.035490975 1.181335e-38 316 269
-0.0036714801 0.69800001 -0.035490975 1.1721153e-38 317 269
-0.0024476533 0.69800001 -0.035490975 1.1536042e-38 318 269
-0.0012238267 0.69800001 -0.035490975 1.1259095e-38 319 269
0 0.69800001 -0.035490975 1.1626437e-38 320 269
0.0012238267 0.69800001 -0.035490975 1.199486e-38 321 269
0.0024476533 0.69800001 -0.035490975 1.217996e-38 322 269
0.0036714801 0.69800001 -0.035490975 1.217996e-38 323 269
0.0048953067 0.69800001 -0.035490975 1.2270355e-38 324 269
0.006119133 0.69800001 -0.035490975 1.2270355e-38 325 269
0.0073429602 0.69800001 -0.035490975 1.2269636e-38 326 269
0.0085913334 0.69999999 -0.035592664 1.2269636e-38 327 269
0.0098186666 0.69999999 -0.035592664 1.2178513e-38 328 269
0.011061779 0.70099998 -0.035643511 1.2178513e-38 329 269
0.012325933 0.70300001 -0.035745207 1.2177791e-38 330 269
0.013577812 0.704 -0.035796054 1.2270345e-38 331 269
0.014854239 0.70599997 -0.035897743 1.2821717e-38 332 269
0.016114887 0.70700002 -0.035948593 1.3467086e-38 333 269
0.017379038 0.708 -0.03599944 1.4019536e-38 334 269
0.018672999 0.70999998 -0.036101133 1.3374166e-38 335 269
0.019917866 0.70999998 -0.036101133 1.2820623e-38 336 269
0.021192541 0.71100003 -0.036151983 1.3097209e-38 337 269
0.022439159 0.71100003 -0.036151983 1.5582523e-38 338 269
0.02378572 0.71399999 -0.036304519 2.0561446e-38 339 269
0.025107734 0.71600002 -0.036406212 2.2402106e-38 340 269
-0.036101133 0.70999998 -0.037345998 1.7426066e-38 291 270
-0.034758076 0.708 -0.0372408 1.5585773e-38 292 270
-0.033516716 0.708 -0.0372408 1.5032599e-38 293 270
-0.032229774 0.70700002 -0.037188202 1.457416e-38 294 270
-0.030946331 0.70599997 -0.037135597 1.5127334e-38 295 270
-0.029708479 0.70599997 -0.037135597 1.6784328e-38 296 270
-0.028389972 0.704 -0.037030395 1.65081e-38 297 270
-0.027117053 0.70300001 -0.036977798 1.5122264e-38 298 270
-0.025884461 0.70300001 -0.036977798 1.3463103e-38 299 270
-0.024581732 0.70099998 -0.036872596 1.4112438e-38 300 270
-0.023252707 0.69800001 -0.0367148 1.6970142e-38 301 270
-0.02202888 0.69800001 -0.0367148 1.6050729e-38 302 270
-0.020805053 0.69800001 -0.0367148 1.4944381e-38 303 270
-0.019637333 0.69999999 -0.036819998 1.2641667e-38 304 270
-0.018409999 0.69999999 -0.036819998 1.1903743e-38 305 270
-0.017133573 0.69800001 -0.0367148 1.2732428e-38 306 270
-0.015909746 0.69800001 -0.0367148 1.310157e-38 307 270
-0.01468592 0.69800001 -0.0367148 1.2457636e-38 308 270
-0.013462093 0.69800001 -0.0367148 1.2273605e-38 309 270
-0.012238266 0.69800001 -0.0367148 1.2181412e-38 310 270
-0.01099866 0.69700003 -0.036662199 1.1996662e-38 311 270
-0.0097765867 0.69700003 -0.036662199 1.1721873e-38 312 270
-0.0085545136 0.69700003 -0.036662199 1.199846e-38 313 270
-0.00733244 0.69700003 -0.036662199 1.2456917e-38 314 270
-0.006119133 0.69800001 -0.0367148 1.2272526e-38 315 270
-0.0048953067 0.69800001 -0.0367148 1.2364002e-38 316 270
-0.0036714801 0.69800001 -0.0367148 1.2271807e-38 317 270
-0.0024476533 0.69800001 -0.0367148 1.1997015e-38 318 270
-0.0012238267 0.69800001 -0.0367148 1.1812622e-38 319 270
0 0.69800001 -0.0367148 1.1352364e-38 320 270
0.0012238267 0.69800001 -0.0367148 1.1352364e-38 321 270
0.0024476533 0.69800001 -0.0367148 1.2087409e-38 322 270
0.0036714801 0.69800001 -0.0367148 1.2179963e-38 323 270
0.0048953067 0.69800001 -0.0367148 1.2178162e-38 324 270
0.006119133 0.69800001 -0.0367148 1.2178162e-38 325 270
0.0073639993 0.69999999 -0.036819998 1.2362909e-38 326 270
0.0085913334 0.69999999 -0.036819998 1.2270355e-38 327 270
0.0098186666 0.69999999 -0.036819998 1.2821367e-38 328 270
0.011061779 0.70099998 -0.036872596 1.2913562e-38 329 270
0.012325933 0.70300001 -0.036977798 1.2638768e-38 330 270
0.013616386 0.70599997 -0.037135597 1.2638768e-38 331 270
0.01487528 0.70700002 -0.037188202 1.2914631e-38 332 270
0.01613768 0.708 -0.0372408 1.3006829e-38 333 270
0.017379038 0.708 -0.0372408 1.3006826e-38 334 270
0.018672999 0.70999998 -0.037345998 1.2638402e-38 335 270
0.019917866 0.70999998 -0.037345998 1.3186888e-38 336 270
0.021192541 0.71100003 -0.037398599 1.3647865e-38 337 270
0.022502279 0.713 -0.037503798 1.5675075e-38 338 270
0.02378572 0.71399999 -0.037556399 2.0745474e-38 339 270
0.025107734 0.71600002 -0.037661601 2.1943286e-38 340 270
0.026363119 0.71600002 -0.037661601 2.1574143e-38 341 270
-0.037661601 0.71600002 -0.038916986 1.8993396e-38 290 271
-0.036101133 0.70999998 -0.038590867 1.7886688e-38 291 271
-0.034856264 0.70999998 -0.038590867 1.5769088e-38 292 271
-0.033516716 0.708 -0.038482159 1.5031163e-38 293 271
-0.032229774 0.70700002 -0.038427804 1.4666709e-38 294 271
-0.030946331 0.70599997 -0.038373452 1.4481959e-38 295 271
-0.029708479 0.70599997 -0.038373452 1.4391208e-38 296 271
-0.028389972 0.704 -0.038264744 1.6142925e-38 297 271
-0.027155625 0.704 -0.038264744 1.7430777e-38 298 271
-0.025884461 0.70300001 -0.038210396 1.6416623e-38 299 271
-0.024581732 0.70099998 -0.038101684 1.5405346e-38 300 271
-0.023319334 0.69999999 -0.038047329 1.5958161e-38 301 271
-0.022091998 0.69999999 -0.038047329 1.5866345e-38 302 271
-0.020864666 0.69999999 -0.038047329 1.5036583e-38 303 271
-0.019637333 0.69999999 -0.038047329 1.1630753e-38 304 271
-0.018409999 0.69999999 -0.038047329 1.0893188e-38 305 271
-0.017182667 0.69999999 -0.038047329 1.2732781e-38 306 271
-0.015955333 0.69999999 -0.038047329 1.2917172e-38 307 271
-0.01468592 0.69800001 -0.037938625 1.2455468e-38 308 271
-0.013462093 0.69800001 -0.037938625 1.2179241e-38 309 271
-0.012238266 0.69800001 -0.037938625 1.2180327e-38 310 271
-0.01101444 0.69800001 -0.037938625 1.1996295e-38 311 271
-0.0097906133 0.69800001 -0.037938625 1.2271804e-38 312 271
-0.0085667865 0.69800001 -0.037938625 1.2640585e-38 313 271
-0.0073429602 0.69800001 -0.037938625 1.263951e-38 314 271
-0.006119133 0.69800001 -0.037938625 1.2547315e-38 315 271
-0.0048953067 0.69800001 -0.037938625 1.2364002e-38 316 271
-0.0036714801 0.69800001 -0.037938625 1.2364002e-38 317 271
-0.0024476533 0.69800001 -0.037938625 1.2364358e-38 318 271
-0.0012238267 0.69800001 -0.037938625 1.2179607e-38 319 271
0 0.69800001 -0.037938625 1.1536393e-38 320 271
0.0012238267 0.69800001 -0.037938625 1.1536393e-38 321 271
0.0024476533 0.69800001 -0.037938625 1.2454752e-38 322 271
0.0036714801 0.69800001 -0.037938625 1.2362556e-38 323 271
0.0048953067 0.69800001 -0.037938625 1.2177806e-38 324 271
0.006119133 0.69800001 -0.037938625 1.2177806e-38 325 271
0.0073639993 0.69999999 -0.038047329 1.1812254e-38 326 271
0.0085913334 0.69999999 -0.038047329 1.1904449e-38 327 271
0.0098326923 0.70099998 -0.038101684 1.3280903e-38 328 271
0.011061779 0.70099998 -0.038101684 1.3557131e-38 329 271
0.012343466 0.704 -0.038264744 1.2915715e-38 330 271
0.013616386 0.70599997 -0.038373452 1.282316e-38 331 271
0.01487528 0.70700002 -0.038427804 1.263697e-38 332 271
0.01613768 0.708 -0.038482159 1.2175992e-38 333 271
0.017428132 0.70999998 -0.038590867 1.180936e-38 334 271
0.0186993 0.71100003 -0.038645219 1.180936e-38 335 271
0.01994592 0.71100003 -0.038645219 1.2636231e-38 336 271
0.021252153 0.713 -0.038753927 1.3281601e-38 337 271
0.022596961 0.71600002 -0.038916986 1.5767267e-38 338 271
0.02388566 0.71700001 -0.038971342 2.0838027e-38 339 271
0.0251428 0.71700001 -0.038971342 2.2035481e-38 340 271
0.02639994 0.71700001 -0.038971342 2.1666339e-38 341 271
-0.039080046 0.71899998 -0.040340692 2.1205721e-38 289 272
-0.037661601 0.71600002 -0.040172372 1.7888489e-38 290 272
-0.036253672 0.713 -0.040004052 1.6413358e-38 291 272
-0.034905359 0.71100003 -0.039891839 1.6412299e-38 292 272
-0.033611398 0.70999998 -0.039835732 1.6043877e-38 293 272
-0.03227536 0.708 -0.039723519 1.5310277e-38 294 272
-0.030990168 0.70700002 -0.039667413 1.4664908e-38 295 272
-0.029750559 0.70700002 -0.039667413 1.3471049e-38 296 272
-0.028470624 0.70599997 -0.039611302 1.4577397e-38 297 272
-0.027155625 0.704 -0.039499093 1.6050732e-38 298 272
-0.025884461 0.70300001 -0.039442986 1.5866342e-38 299 272
-0.024651866 0.70300001 -0.039442986 1.5407158e-38 300 272
-0.023352645 0.70099998 -0.039330769 1.5499353e-38 301 272
-0.022123558 0.70099998 -0.039330769 1.5591556e-38 302 272
-0.020894472 0.70099998 -0.039330769 1.4853631e-38 303 272
-0.019665385 0.70099998 -0.039330769 1.0343257e-38 304 272
-0.018436298 0.70099998 -0.039330769 9.5131364e-39 305 272
-0.017182667 0.69999999 -0.039274666 1.2918977e-38 306 272
-0.015955333 0.69999999 -0.039274666 1.3471792e-38 307 272
-0.014727999 0.69999999 -0.039274666 1.3835889e-38 308 272
-0.013462093 0.69800001 -0.039162453 1.3651497e-38 309 272
-0.012238266 0.69800001 -0.039162453 1.3375996e-38 310 272
-0.01101444 0.69800001 -0.039162453 1.3007573e-38 311 272
-0.0097906133 0.69800001 -0.039162453 1.2731709e-38 312 272
-0.0085667865 0.69800001 -0.039162453 1.2823904e-38 313 272
-0.0073429602 0.69800001 -0.039162453 1.2182131e-38 314 272
-0.006119133 0.69800001 -0.039162453 1.181335e-38 315 272
-0.0048953067 0.69800001 -0.039162453 1.2364358e-38 316 272
-0.0036714801 0.69800001 -0.039162453 1.2364358e-38 317 272
-0.0024476533 0.69800001 -0.039162453 1.2548384e-38 318 272
-0.0012238267 0.69800001 -0.039162453 1.2364353e-38 319 272
0 0.69800001 -0.039162453 1.2823529e-38 320 272
0.0012238267 0.69800001 -0.039162453 1.2823529e-38 321 272
0.0024476533 0.69800001 -0.039162453 1.2640217e-38 322 272
0.0036714801 0.69800001 -0.039162453 1.2363628e-38 323 272
0.0048953067 0.69800001 -0.039162453 1.1994847e-38 324 272
0.0061366665 0.69999999 -0.039274666 1.1902652e-38 325 272
0.0073639993 0.69999999 -0.039274666 1.0338919e-38 326 272
0.0085913334 0.69999999 -0.039274666 9.1403756e-39 327 272
0.0098326923 0.70099998 -0.039330769 1.1249724e-38 328 272
0.01109334 0.70300001 -0.039442986 1.1526309e-38 329 272
0.012343466 0.704 -0.039499093 1.1167956e-38 330 272
0.013616386 0.70599997 -0.039611302 1.1628936e-38 331 272
0.01487528 0.70700002 -0.039667413 1.2084878e-38 332 272
0.01613768 0.708 -0.039723519 1.1715737e-38 333 272
0.017428132 0.70999998 -0.039835732 1.0888127e-38 334 272
0.0186993 0.71100003 -0.039891839 1.1256909e-38 335 272
0.020002026 0.713 -0.040004052 1.1625323e-38 336 272
0.021371379 0.71700001 -0.040228479 1.2639474e-38 337 272
0.02262852 0.71700001 -0.040228479 1.6320088e-38 338 272
0.02388566 0.71700001 -0.040228479 2.1022424e-38 339 272
0.0251428 0.71700001 -0.040228479 2.2403544e-38 340 272
0.02647358 0.71899998 -0.040340692 2.2034402e-38 341 272
-0.040396802 0.72000003 -0.041659199 2.249646e-38 288 273
-0.039080046 0.71899998 -0.041601337 2.1113525e-38 289 273
-0.037661601 0.71600002 -0.041427758 1.715057e-38 290 273
-0.036304519 0.71399999 -0.041312039 1.5306658e-38 291 273
-0.035003547 0.713 -0.041254178 1.5860927e-38 292 273
-0.033611398 0.70999998 -0.041080594 1.6414101e-38 293 273
-0.032366529 0.70999998 -0.041080594 1.5953479e-38 294 273
-0.031034 0.708 -0.040964879 1.5123718e-38 295 273
-0.029750559 0.70700002 -0.040907022 1.3653993e-38 296 273
-0.028470624 0.70599997 -0.040849157 1.4391917e-38 297 273
-0.027155625 0.704 -0.040733438 1.5314596e-38 298 273
-0.025884461 0.70300001 -0.040675577 1.586777e-38 299 273
-0.024651866 0.70300001 -0.040675577 1.6051082e-38 300 273
-0.023352645 0.70099998 -0.040559858 1.586705e-38 301 273
-0.022123558 0.70099998 -0.040559858 1.5867417e-38 302 273
-0.020894472 0.70099998 -0.040559858 1.5222047e-38 303 273
-0.019721493 0.70300001 -0.040675577 1.061769e-38 304 273
-0.018436298 0.70099998 -0.040559858 8.2209627e-39 305 273
-0.017207211 0.70099998 -0.040559858 1.135274e-38 306 273
-0.015955333 0.69999999 -0.040502001 1.2919706e-38 307 273
-0.014727999 0.69999999 -0.040502001 1.3560028e-38 308 273
-0.013500666 0.69999999 -0.040502001 1.392845e-38 309 273
-0.012238266 0.69800001 -0.040386278 1.4756769e-38 310 273
-0.01101444 0.69800001 -0.040386278 1.4756769e-38 311 273
-0.0097906133 0.69800001 -0.040386278 1.4665655e-38 312 273
-0.0085667865 0.69800001 -0.040386278 1.4020285e-38 313 273
-0.0073429602 0.69800001 -0.040386278 1.2642031e-38 314 273
-0.006119133 0.69800001 -0.040386278 1.2549834e-38 315 273
-0.0049093333 0.69999999 -0.040502001 1.273493e-38 316 273
-0.0036714801 0.69800001 -0.040386278 1.2642733e-38 317 273
-0.0024476533 0.69800001 -0.040386278 1.1352367e-38 318 273
-0.0012238267 0.69800001 -0.040386278 1.0706998e-38 319 273
0 0.69800001 -0.040386278 1.2089211e-38 320 273
0.0012238267 0.69800001 -0.040386278 1.2181406e-38 321 273
0.0024476533 0.69800001 -0.040386278 1.1534222e-38 322 273
0.0036714801 0.69800001 -0.040386278 1.1165438e-38 323 273
0.0049093333 0.69999999 -0.040502001 1.0981773e-38 324 273
0.0061366665 0.69999999 -0.040502001 1.0797023e-38 325 273
0.0073639993 0.69999999 -0.040502001 8.2209374e-39 326 273
0.0086036054 0.70099998 -0.040559858 7.8521549e-39 327 273
