# .PCD v.7 - Point Cloud Data file format
FIELDS x y z rgb imX imY
SIZE 4 4 4 4 4 4
TYPE F F F F F F
COUNT 1 1 1 1 1 1
WIDTH 832
HEIGHT 1
VIEWPOINT 0 0 0 1 0 0 0
POINTS 832
DATA ascii
0.023419274 0.70300001 -0.018488899 1.7982486e-38 339 255
-0.040733438 0.704 -0.019749546 2.2588299e-38 287 256
-0.039499093 0.704 -0.019749546 2.2771967e-38 288 256
-0.038264744 0.704 -0.019749546 2.1481229e-38 289 256
-0.037030395 0.704 -0.019749546 1.7327033e-38 290 256
-0.035745207 0.70300001 -0.019721493 1.400799e-38 291 256
-0.034512613 0.70300001 -0.019721493 1.3178249e-38 292 256
-0.03318534 0.70099998 -0.019665385 1.1795315e-38 293 256
-0.031910665 0.69999999 -0.019637333 1.2806245e-38 294 256
-0.030595668 0.69800001 -0.019581227 1.4005149e-38 295 256
-0.029371841 0.69800001 -0.019581227 1.5847628e-38 296 256
-0.028107686 0.69700003 -0.019553173 1.750715e-38 297 256
-0.026885614 0.69700003 -0.019553173 1.6321202e-38 298 256
-0.025626717 0.69599998 -0.019525118 1.6966571e-38 299 256
-0.024336265 0.69400001 -0.019469013 1.6050013e-38 300 256
-0.02308614 0.69300002 -0.01944096 1.6050013e-38 301 256
-0.021807959 0.69099998 -0.019384852 1.604929e-38 302 256
-0.020596405 0.69099998 -0.019384852 1.5864899e-38 303 256
-0.01944096 0.69300002 -0.01944096 1.5588306e-38 304 256
-0.0181733 0.69099998 -0.019384852 1.5035132e-38 305 256
-0.0169372 0.69 -0.019356798 1.3746194e-38 306 256
-0.015727401 0.69 -0.019356798 1.2823879e-38 307 256
-0.014517599 0.69 -0.019356798 1.2180313e-38 308 256
-0.0133078 0.69 -0.019356798 1.1719337e-38 309 256
-0.012062933 0.68800002 -0.019300694 1.0525105e-38 310 256
-0.010856641 0.68800002 -0.019300694 1.0064127e-38 311 256
-0.0096503468 0.68800002 -0.019300694 9.0528519e-39 312 256
-0.0084440531 0.68800002 -0.019300694 8.6837107e-39 313 256
-0.0072377604 0.68800002 -0.019300694 9.235811e-39 314 256
-0.0060314666 0.68800002 -0.019300694 9.9733761e-39 315 256
-0.0048251734 0.68800002 -0.019300694 1.0433635e-38 316 256
-0.0036188802 0.68800002 -0.019300694 1.0802058e-38 317 256
-0.0024125867 0.68800002 -0.019300694 1.218031e-38 318 256
-0.0012062934 0.68800002 -0.019300694 1.2549093e-38 319 256
0 0.68800002 -0.019300694 1.3006475e-38 320 256
0.0012062934 0.68800002 -0.019300694 1.2914278e-38 321 256
0.0024125867 0.68800002 -0.019300694 1.3191225e-38 322 256
0.0036293997 0.69 -0.019356798 1.3651845e-38 323 256
0.0048391996 0.69 -0.019356798 1.4296847e-38 324 256
0.0060489997 0.69 -0.019356798 1.4296847e-38 325 256
0.0072903596 0.69300002 -0.01944096 1.4755301e-38 326 256
0.0085054198 0.69300002 -0.01944096 1.374151e-38 327 256
0.0097345067 0.69400001 -0.019469013 1.2635528e-38 328 256
0.010982879 0.69599998 -0.019525118 1.1897963e-38 329 256
0.0122032 0.69599998 -0.019525118 1.1167232e-38 330 256
0.013442807 0.69700003 -0.019553173 1.162821e-38 331 256
0.01466488 0.69700003 -0.019553173 1.2634805e-38 332 256
0.015909746 0.69800001 -0.019581227 1.2727e-38 333 256
0.017182667 0.69999999 -0.019637333 1.2266743e-38 334 256
0.018436298 0.70099998 -0.019665385 1.1621373e-38 335 256
0.019721493 0.70300001 -0.019721493 1.2081262e-38 336 256
0.020954086 0.70300001 -0.019721493 1.2634436e-38 337 256
0.022218239 0.704 -0.019749546 1.3554218e-38 338 256
0.023452586 0.704 -0.019749546 1.8625338e-38 339 256
-0.040733438 0.704 -0.020983893 2.2220592e-38 287 257
-0.039499093 0.704 -0.020983893 2.2588655e-38 288 257
-0.038264744 0.704 -0.020983893 2.1666339e-38 289 257
-0.037030395 0.704 -0.020983893 1.7972384e-38 290 257
-0.035745207 0.70300001 -0.020954086 1.3455157e-38 291 257
-0.034512613 0.70300001 -0.020954086 1.418445e-38 292 257
-0.03318534 0.70099998 -0.020894472 1.335505e-38 293 257
-0.031910665 0.69999999 -0.020864666 1.2424833e-38 294 257
-0.030595668 0.69800001 -0.020805053 1.1041898e-38 295 257
-0.029371841 0.69800001 -0.020805053 1.2785366e-38 296 257
-0.028107686 0.69700003 -0.020775247 1.6381356e-38 297 257
-0.026885614 0.69700003 -0.020775247 1.5114753e-38 298 257
-0.025626717 0.69599998 -0.020745439 1.7419642e-38 299 257
-0.024336265 0.69400001 -0.020685827 1.6415564e-38 300 257
-0.02308614 0.69300002 -0.020656019 1.6415564e-38 301 257
-0.021871079 0.69300002 -0.020656019 1.5497558e-38 302 257
-0.020656019 0.69300002 -0.020656019 1.5220973e-38 303 257
-0.01944096 0.69300002 -0.020656019 1.5405362e-38 304 257
-0.0181733 0.69099998 -0.020596405 1.5589754e-38 305 257
-0.016961746 0.69099998 -0.020596405 1.4391213e-38 306 257
-0.015750192 0.69099998 -0.020596405 1.4022072e-38 307 257
-0.014517599 0.69 -0.020566599 1.4574523e-38 308 257
-0.0133078 0.69 -0.020566599 1.5127697e-38 309 257
-0.012062933 0.68800002 -0.020506985 1.5127697e-38 310 257
-0.010856641 0.68800002 -0.020506985 1.5127697e-38 311 257
-0.0096503468 0.68800002 -0.020506985 1.5127697e-38 312 257
-0.0084440531 0.68800002 -0.020506985 1.5219892e-38 313 257
-0.0072377604 0.68800002 -0.020506985 1.5219173e-38 314 257
-0.0060314666 0.68800002 -0.020506985 1.5219173e-38 315 257
-0.0048251734 0.68800002 -0.020506985 1.4944387e-38 316 257
-0.0036188802 0.68800002 -0.020506985 1.4575606e-38 317 257
-0.0024125867 0.68800002 -0.020506985 1.5217378e-38 318 257
-0.0012062934 0.68800002 -0.020506985 1.5217378e-38 319 257
0 0.68800002 -0.020506985 1.4480892e-38 320 257
0.0012062934 0.68800002 -0.020506985 1.4296141e-38 321 257
0.0024125867 0.68800002 -0.020506985 1.4021705e-38 322 257
0.0036293997 0.69 -0.020566599 1.3191944e-38 323 257
0.0048391996 0.69 -0.020566599 1.2084881e-38 324 257
0.0060577663 0.69099998 -0.020596405 1.25455e-38 325 257
0.0072903596 0.69300002 -0.020656019 1.3648608e-38 326 257
0.0085054198 0.69300002 -0.020656019 1.2450065e-38 327 257
0.0097345067 0.69400001 -0.020685827 1.0059445e-38 328 257
0.010982879 0.69599998 -0.020745439 9.1371288e-39 329 257
0.0122032 0.69599998 -0.020745439 8.5904234e-39 330 257
0.013442807 0.69700003 -0.020775247 9.6045753e-39 331 257
0.01466488 0.69700003 -0.020775247 1.1438061e-38 332 257
0.015909746 0.69800001 -0.020805053 1.1899038e-38 333 257
0.017182667 0.69999999 -0.020864666 1.1622821e-38 334 257
0.018436298 0.70099998 -0.020894472 1.1346234e-38 335 257
0.019721493 0.70300001 -0.020954086 1.2171307e-38 336 257
0.020983893 0.704 -0.020983893 1.3001427e-38 337 257
0.022281358 0.70599997 -0.021043506 1.3831528e-38 338 257
0.023519212 0.70599997 -0.021043506 1.8718256e-38 339 257
-0.039667413 0.70700002 -0.022312919 2.2680848e-38 288 258
-0.038427804 0.70700002 -0.022312919 2.1851087e-38 289 258
-0.037135597 0.70599997 -0.022281358 1.8803587e-38 290 258
-0.035796054 0.704 -0.022218239 1.4655142e-38 291 258
-0.034561705 0.704 -0.022218239 1.5658138e-38 292 258
-0.033280019 0.70300001 -0.02218668 1.4736182e-38 293 258
-0.031956252 0.70099998 -0.022123558 1.4446275e-38 294 258
-0.030683333 0.69999999 -0.022091998 1.1956994e-38 295 258
-0.029371841 0.69800001 -0.02202888 1.3505999e-38 296 258
-0.028148014 0.69800001 -0.02202888 1.387514e-38 297 258
-0.026885614 0.69700003 -0.02199732 1.3428963e-38 298 258
-0.025626717 0.69599998 -0.021965759 1.6286667e-38 299 258
-0.0244064 0.69599998 -0.021965759 1.4749566e-38 300 258
-0.02308614 0.69300002 -0.021871079 1.6593479e-38 301 258
-0.021871079 0.69300002 -0.021871079 1.5679435e-38 302 258
-0.020656019 0.69300002 -0.021871079 1.5679435e-38 303 258
-0.01944096 0.69300002 -0.021871079 1.4946186e-38 304 258
-0.018225901 0.69300002 -0.021871079 1.5038382e-38 305 258
-0.016961746 0.69099998 -0.021807959 1.2182131e-38 306 258
-0.015750192 0.69099998 -0.021807959 9.8772414e-39 307 258
-0.014538639 0.69099998 -0.021807959 1.0703055e-38 308 258
-0.013327086 0.69099998 -0.021807959 1.2546967e-38 309 258
-0.012097999 0.69 -0.021776399 1.3835538e-38 310 258
-0.010888199 0.69 -0.021776399 1.3005419e-38 311 258
-0.0096783992 0.69 -0.021776399 1.2548034e-38 312 258
-0.0084686 0.69 -0.021776399 1.3470349e-38 313 258
-0.0072377604 0.68800002 -0.021713281 1.3464229e-38 314 258
-0.0060314666 0.68800002 -0.021713281 1.235824e-38 315 258
-0.0048251734 0.68800002 -0.021713281 1.180938e-38 316 258
-0.0036188802 0.68800002 -0.021713281 1.2362554e-38 317 258
-0.0024125867 0.68800002 -0.021713281 1.3648976e-38 318 258
-0.0012062934 0.68800002 -0.021713281 1.3556781e-38 319 258
0 0.68800002 -0.021713281 1.2177087e-38 320 258
0.0012062934 0.68800002 -0.021713281 1.2545869e-38 321 258
0.0024195998 0.69 -0.021776399 1.273493e-38 322 258
0.0036293997 0.69 -0.021776399 8.3098989e-39 323 258
0.0048462129 0.69099998 -0.021807959 5.7208781e-39 324 258
0.0060577663 0.69099998 -0.021807959 7.3803994e-39 325 258
0.0072903596 0.69300002 -0.021871079 9.7692223e-39 326 258
0.0085176928 0.69400001 -0.021902639 9.1238529e-39 327 258
0.0097625591 0.69599998 -0.021965759 8.223101e-39 328 258
0.010982879 0.69599998 -0.021965759 8.5000481e-39 329 258
0.012220734 0.69700003 -0.02199732 9.8775679e-39 330 258
0.013442807 0.69700003 -0.02199732 1.0430742e-38 331 258
0.01468592 0.69800001 -0.02202888 1.1530975e-38 332 258
0.015955333 0.69999999 -0.022091998 1.1530975e-38 333 258
0.017182667 0.69999999 -0.022091998 1.1529906e-38 334 258
0.018436298 0.70099998 -0.022123558 1.1437711e-38 335 258
0.019721493 0.70300001 -0.02218668 1.2539013e-38 336 258
0.020983893 0.704 -0.022218239 1.3276937e-38 337 258
0.022281358 0.70599997 -0.022281358 1.3923726e-38 338 258
0.023519212 0.70599997 -0.022281358 1.8810096e-38 339 258
-0.039667413 0.70700002 -0.023552528 2.2588652e-38 288 259
-0.038427804 0.70700002 -0.023552528 2.1851087e-38 289 259
-0.037135597 0.70599997 -0.023519212 1.9265297e-38 290 259
-0.035897743 0.70599997 -0.023519212 1.6130645e-38 291 259
-0.034561705 0.704 -0.023452586 1.6858129e-38 292 259
-0.03332736 0.704 -0.023452586 1.5106414e-38 293 259
-0.032047424 0.70300001 -0.023419274 1.4350842e-38 294 259
-0.030727165 0.70099998 -0.023352645 1.2690962e-38 295 259
-0.029371841 0.69800001 -0.023252707 1.4517961e-38 296 259
-0.028148014 0.69800001 -0.023252707 1.3319776e-38 297 259
-0.026885614 0.69700003 -0.023219392 1.2765172e-38 298 259
-0.025626717 0.69599998 -0.023186078 1.3594215e-38 299 259
-0.0244064 0.69599998 -0.023186078 1.2334102e-38 300 259
-0.023119451 0.69400001 -0.023119451 1.7312307e-38 301 259
-0.021902639 0.69400001 -0.023119451 1.5216305e-38 302 259
-0.020685827 0.69400001 -0.023119451 1.6230098e-38 303 259
-0.019469013 0.69400001 -0.023119451 1.5220978e-38 304 259
-0.018225901 0.69300002 -0.02308614 1.5220978e-38 305 259
-0.01701084 0.69300002 -0.02308614 1.18112e-38 306 259
-0.015795778 0.69300002 -0.02308614 7.2936142e-39 307 259
-0.014538639 0.69099998 -0.023019511 6.9302547e-39 308 259
-0.013327086 0.69099998 -0.023019511 7.9447667e-39 309 259
-0.012115533 0.69099998 -0.023019511 1.1071134e-38 310 259
-0.010888199 0.69 -0.022986198 1.0610156e-38 311 259
-0.0096783992 0.69 -0.022986198 9.5999469e-39 312 259
-0.0084686 0.69 -0.022986198 1.0337512e-38 313 259
-0.0072377604 0.68800002 -0.022919573 9.8765141e-39 314 259
-0.0060314666 0.68800002 -0.022919573 9.1389491e-39 315 259
-0.0048251734 0.68800002 -0.022919573 9.7839345e-39 316 259
-0.0036188802 0.68800002 -0.022919573 1.0429304e-38 317 259
-0.0024125867 0.68800002 -0.022919573 1.1162563e-38 318 259
-0.0012062934 0.68800002 -0.022919573 1.0794139e-38 319 259
0 0.68800002 -0.022919573 8.0397888e-39 320 259
0.0012097999 0.69 -0.022986198 8.6851582e-39 321 259
0.0024195998 0.69 -0.022986198 1.209062e-38 322 259
0.0036346598 0.69099998 -0.023019511 9.8775651e-39 323 259
0.0048462129 0.69099998 -0.023019511 8.3044787e-39 324 259
0.0060753003 0.69300002 -0.02308614 8.397033e-39 325 259
0.0072903596 0.69300002 -0.02308614 8.3062961e-39 326 259
0.0085176928 0.69400001 -0.023119451 9.1360568e-39 327 259
0.0097625591 0.69599998 -0.023186078 9.7857478e-39 328 259
0.01099866 0.69700003 -0.023219392 9.8779449e-39 329 259
0.012220734 0.69700003 -0.023219392 1.0888856e-38 330 259
0.013462093 0.69800001 -0.023252707 1.1718256e-38 331 259
0.01468592 0.69800001 -0.023252707 1.171609e-38 332 259
0.015955333 0.69999999 -0.023319334 1.1347666e-38 333 259
0.017207211 0.70099998 -0.023352645 1.152918e-38 334 259
0.018436298 0.70099998 -0.023352645 1.1621376e-38 335 259
0.019721493 0.70300001 -0.023419274 1.2173827e-38 336 259
0.020983893 0.704 -0.023452586 1.2727e-38 337 259
0.022312919 0.70700002 -0.023552528 1.3832254e-38 338 259
0.023552528 0.70700002 -0.023552528 1.8995209e-38 339 259
-0.041138459 0.71100003 -0.024932399 2.2403908e-38 287 260
-0.039723519 0.708 -0.024827199 2.2680851e-38 288 260
-0.038482159 0.708 -0.024827199 2.185109e-38 289 260
-0.037135597 0.70599997 -0.024757065 1.8896517e-38 290 260
-0.035897743 0.70599997 -0.024757065 1.6130289e-38 291 260
-0.034561705 0.704 -0.024686933 1.7781532e-38 292 260
-0.03332736 0.704 -0.024686933 1.5753228e-38 293 260
-0.032047424 0.70300001 -0.024651866 1.4539171e-38 294 260
-0.030814834 0.70300001 -0.024651866 1.2695618e-38 295 260
-0.029455997 0.69999999 -0.024546666 1.4336406e-38 296 260
-0.028148014 0.69800001 -0.024476532 1.4428601e-38 297 260
-0.026885614 0.69700003 -0.024441468 1.4520465e-38 298 260
-0.025663542 0.69700003 -0.024441468 1.3875095e-38 299 260
-0.0244064 0.69599998 -0.0244064 1.3136884e-38 300 260
-0.023186078 0.69599998 -0.0244064 1.3597863e-38 301 260
-0.021902639 0.69400001 -0.024336265 1.3185484e-38 302 260
-0.020685827 0.69400001 -0.024336265 1.6780754e-38 303 260
-0.019469013 0.69400001 -0.024336265 1.5497558e-38 304 260
-0.0182522 0.69400001 -0.024336265 1.5589754e-38 305 260
-0.01701084 0.69300002 -0.024301201 1.356039e-38 306 260
-0.015795778 0.69300002 -0.024301201 1.0518293e-38 307 260
-0.014580719 0.69300002 -0.024301201 1.1066092e-38 308 260
-0.013327086 0.69099998 -0.024231065 1.1250484e-38 309 260
-0.012115533 0.69099998 -0.024231065 1.0057688e-38 310 260
-0.010888199 0.69 -0.024195999 9.872938e-39 311 260
-0.0096783992 0.69 -0.024195999 1.0243872e-38 312 260
-0.0084686 0.69 -0.024195999 9.6906977e-39 313 260
-0.0072587994 0.69 -0.024195999 7.7617796e-39 314 260
-0.0060314666 0.68800002 -0.024125867 7.3008014e-39 315 260
-0.0048251734 0.68800002 -0.024125867 9.9618742e-39 316 260
-0.0036188802 0.68800002 -0.024125867 1.0607244e-38 317 260
-0.0024231065 0.69099998 -0.024231065 1.0236669e-38 318 260
-0.0012115532 0.69099998 -0.024231065 1.0605091e-38 319 260
0 0.69 -0.024195999 8.2267164e-39 320 260
0.0012097999 0.69 -0.024195999 8.4111091e-39 321 260
0.00243012 0.69300002 -0.024301201 1.2273232e-38 322 260
0.0036451798 0.69300002 -0.024301201 1.2365428e-38 323 260
0.00486024 0.69300002 -0.024301201 1.3280171e-38 324 260
0.0060753003 0.69300002 -0.024301201 1.2819193e-38 325 260
0.0072903596 0.69300002 -0.024301201 1.2085225e-38 326 260
0.0085176928 0.69400001 -0.024336265 1.2546204e-38 327 260
0.0097625591 0.69599998 -0.0244064 1.2541534e-38 328 260
0.01099866 0.69700003 -0.024441468 1.2357142e-38 329 260
0.012220734 0.69700003 -0.024441468 1.2358588e-38 330 260
0.013462093 0.69800001 -0.024476532 1.2266392e-38 331 260
0.01468592 0.69800001 -0.024476532 1.1806489e-38 332 260
0.015955333 0.69999999 -0.024546666 1.1622458e-38 333 260
0.017207211 0.70099998 -0.024581732 1.1162197e-38 334 260
0.018488899 0.70300001 -0.024651866 1.1162197e-38 335 260
0.019749546 0.704 -0.024686933 1.1438783e-38 336 260
0.020983893 0.704 -0.024686933 1.1807566e-38 337 260
0.022344479 0.708 -0.024827199 1.4200317e-38 338 260
0.023585839 0.708 -0.024827199 1.9547664e-38 339 260
-0.041138459 0.71100003 -0.026179021 2.249646e-38 287 261
-0.039891839 0.71100003 -0.026179021 2.2588655e-38 288 261
-0.038590867 0.70999998 -0.026142199 2.1758895e-38 289 261
-0.0372408 0.708 -0.026068559 1.8526655e-38 290 261
-0.035948593 0.70700002 -0.02603174 1.5852982e-38 291 261
-0.034659892 0.70599997 -0.025994917 1.722908e-38 292 261
-0.03332736 0.704 -0.02592128 1.6399319e-38 293 261
-0.032093015 0.704 -0.02592128 1.6393886e-38 294 261
-0.030814834 0.70300001 -0.025884461 1.4918756e-38 295 261
-0.029455997 0.69999999 -0.025773998 1.4442641e-38 296 261
-0.028148014 0.69800001 -0.025700359 1.3059707e-38 297 261
-0.026924185 0.69800001 -0.025700359 1.3973775e-38 298 261
-0.025663542 0.69700003 -0.025663542 1.3604992e-38 299 261
-0.024441468 0.69700003 -0.025663542 1.3596398e-38 300 261
-0.023186078 0.69599998 -0.025626717 1.2214181e-38 301 261
-0.021902639 0.69400001 -0.025553079 1.4274889e-38 302 261
-0.020685827 0.69400001 -0.025553079 1.9899182e-38 303 261
-0.019469013 0.69400001 -0.025553079 1.5590473e-38 304 261
-0.0182522 0.69400001 -0.025553079 1.5590473e-38 305 261
-0.01701084 0.69300002 -0.02551626 1.3378153e-38 306 261
-0.015795778 0.69300002 -0.02551626 1.1626437e-38 307 261
-0.014580719 0.69300002 -0.02551626 1.12573e-38 308 261
-0.01336566 0.69300002 -0.02551626 1.1626084e-38 309 261
-0.012115533 0.69099998 -0.025442619 1.1715033e-38 310 261
-0.01090398 0.69099998 -0.025442619 1.1715033e-38 311 261
-0.0096783992 0.69 -0.025405798 1.2452951e-38 312 261
-0.0084686 0.69 -0.025405798 1.2729897e-38 313 261
-0.0072693196 0.69099998 -0.025442619 1.1810103e-38 314 261
-0.0060577663 0.69099998 -0.025442619 1.144132e-38 315 261
-0.0048391996 0.69 -0.025405798 1.1809736e-38 316 261
-0.0036293997 0.69 -0.025405798 1.2455105e-38 317 261
-0.0024231065 0.69099998 -0.025442619 1.116401e-38 318 261
-0.0012115532 0.69099998 -0.025442619 1.0611197e-38 319 261
0 0.69099998 -0.025442619 9.5106197e-39 320 261
0.0012115532 0.69099998 -0.025442619 9.7875653e-39 321 261
0.00243012 0.69300002 -0.02551626 1.0890673e-38 322 261
0.0036451798 0.69300002 -0.02551626 1.1536042e-38 323 261
0.00486024 0.69300002 -0.02551626 1.2915006e-38 324 261
0.0060840664 0.69400001 -0.025553079 1.2915006e-38 325 261
0.0073008798 0.69400001 -0.025553079 1.2545853e-38 326 261
0.0085422397 0.69599998 -0.025626717 1.2361462e-38 327 261
0.0097765867 0.69700003 -0.025663542 1.2358941e-38 328 261
0.01099866 0.69700003 -0.025663542 1.2266745e-38 329 261
0.012220734 0.69700003 -0.025663542 1.1715737e-38 330 261
0.013462093 0.69800001 -0.025700359 1.1255117e-38 331 261
0.01468592 0.69800001 -0.025700359 1.1806489e-38 332 261
0.015955333 0.69999999 -0.025773998 1.1990882e-38 333 261
0.017207211 0.70099998 -0.025810819 1.2449692e-38 334 261
0.018488899 0.70300001 -0.025884461 1.2449692e-38 335 261
0.019749546 0.704 -0.02592128 1.2541885e-38 336 261
0.021043506 0.70599997 -0.025994917 1.281883e-38 337 261
0.022344479 0.708 -0.026068559 1.3557818e-38 338 261
0.023585839 0.708 -0.026068559 1.8812969e-38 339 261
-0.041138459 0.71100003 -0.027425639 2.2588299e-38 287 262
-0.039891839 0.71100003 -0.027425639 2.2588655e-38 288 262
-0.038590867 0.70999998 -0.027387066 2.1758895e-38 289 262
-0.0372408 0.708 -0.027309919 1.8802163e-38 290 262
-0.03599944 0.708 -0.027309919 1.548312e-38 291 262
-0.034659892 0.70599997 -0.027232772 1.6674461e-38 292 262
-0.033422034 0.70599997 -0.027232772 1.6766657e-38 293 262
-0.032093015 0.704 -0.027155625 1.6858124e-38 294 262
-0.030814834 0.70300001 -0.027117053 1.6950319e-38 295 262
-0.029498078 0.70099998 -0.027039904 1.6212038e-38 296 262
-0.028228667 0.69999999 -0.027001332 1.4644712e-38 297 262
-0.026924185 0.69800001 -0.026924185 1.4725385e-38 298 262
-0.025663542 0.69700003 -0.026885614 1.1959158e-38 299 262
-0.024441468 0.69700003 -0.026885614 1.424427e-38 300 262
-0.023186078 0.69599998 -0.026847038 1.3045727e-38 301 262
-0.021965759 0.69599998 -0.026847038 1.4829495e-38 302 262
-0.020745439 0.69599998 -0.026847038 1.9900254e-38 303 262
-0.019525118 0.69599998 -0.026847038 1.5314962e-38 304 262
-0.0182522 0.69400001 -0.026769891 1.5314962e-38 305 262
-0.017035386 0.69400001 -0.026769891 1.3285952e-38 306 262
-0.015795778 0.69300002 -0.02673132 1.1073617e-38 307 262
-0.014580719 0.69300002 -0.02673132 1.1074338e-38 308 262
-0.01336566 0.69300002 -0.02673132 1.1627153e-38 309 262
-0.012150601 0.69300002 -0.02673132 1.2728815e-38 310 262
-0.01090398 0.69099998 -0.026654173 1.2728815e-38 311 262
-0.0096924258 0.69099998 -0.026654173 1.2730247e-38 312 262
-0.008480873 0.69099998 -0.026654173 1.3191225e-38 313 262
-0.0072693196 0.69099998 -0.026654173 1.2911046e-38 314 262
-0.0060577663 0.69099998 -0.026654173 1.3095437e-38 315 262
-0.00486024 0.69300002 -0.02673132 1.2823529e-38 316 262
-0.0036451798 0.69300002 -0.02673132 1.3100474e-38 317 262
-0.0024231065 0.69099998 -0.026654173 1.1440597e-38 318 262
-0.0012115532 0.69099998 -0.026654173 1.0426445e-38 319 262
0 0.69300002 -0.02673132 1.0243502e-38 320 262
0.00121506 0.69300002 -0.02673132 9.966556e-39 321 262
0.0024336267 0.69400001 -0.026769891 9.7821717e-39 322 262
0.0036504399 0.69400001 -0.026769891 1.0335345e-38 323 262
0.0048672534 0.69400001 -0.026769891 1.1534958e-38 324 262
0.0060840664 0.69400001 -0.026769891 1.1996295e-38 325 262
0.0073219193 0.69599998 -0.026847038 1.2178515e-38 326 262
0.0085545136 0.69700003 -0.026885614 1.2178515e-38 327 262
0.0097765867 0.69700003 -0.026885614 1.2083796e-38 328 262
0.01101444 0.69800001 -0.026924185 1.1623177e-38 329 262
0.012238266 0.69800001 -0.026924185 1.1622102e-38 330 262
0.013462093 0.69800001 -0.026924185 1.1622102e-38 331 262
0.014727999 0.69999999 -0.027001332 1.1897966e-38 332 262
0.015978126 0.70099998 -0.027039904 1.2266389e-38 333 262
0.017256306 0.70300001 -0.027117053 1.2634802e-38 334 262
0.018488899 0.70300001 -0.027117053 1.2726998e-38 335 262
0.019749546 0.704 -0.027155625 1.3094338e-38 336 262
0.021043506 0.70599997 -0.027232772 1.3370566e-38 337 262
0.022407599 0.70999998 -0.027387066 1.3464903e-38 338 262
0.023752406 0.713 -0.027502786 1.8720054e-38 339 262
0.025002534 0.713 -0.027502786 2.2310989e-38 340 262
-0.041138459 0.71100003 -0.028672259 2.2496104e-38 287 263
-0.039891839 0.71100003 -0.028672259 2.2680854e-38 288 263
-0.038590867 0.70999998 -0.028631933 2.1850734e-38 289 263
-0.0372408 0.708 -0.02855128 1.8711767e-38 290 263
-0.03599944 0.708 -0.02855128 1.5300529e-38 291 263
-0.034708988 0.70700002 -0.028510952 1.657111e-38 292 263
-0.033469379 0.70700002 -0.028510952 1.7124283e-38 293 263
-0.032093015 0.704 -0.028389972 1.6486827e-38 294 263
-0.030858666 0.704 -0.028389972 1.7500978e-38 295 263
-0.029582238 0.70300001 -0.028349647 1.6953216e-38 296 263
-0.028268991 0.70099998 -0.028268991 1.6584433e-38 297 263
-0.027001332 0.69999999 -0.028228667 1.5840382e-38 298 263
-0.025700359 0.69800001 -0.028148014 1.0954013e-38 299 263
-0.024441468 0.69700003 -0.028107686 1.3876572e-38 300 263
-0.023219392 0.69700003 -0.028107686 1.2585835e-38 301 263
-0.021965759 0.69599998 -0.028067358 1.5013163e-38 302 263
-0.020745439 0.69599998 -0.028067358 2.0176118e-38 303 263
-0.019525118 0.69599998 -0.028067358 1.559047e-38 304 263
-0.0182522 0.69400001 -0.027986705 1.5314243e-38 305 263
-0.017035386 0.69400001 -0.027986705 1.3562895e-38 306 263
-0.015818574 0.69400001 -0.027986705 1.1626786e-38 307 263
-0.01460176 0.69400001 -0.027986705 1.1903015e-38 308 263
-0.01336566 0.69300002 -0.027946379 1.2087765e-38 309 263
-0.012150601 0.69300002 -0.027946379 1.273061e-38 310 263
-0.01090398 0.69099998 -0.027865725 1.273061e-38 311 263
-0.0096924258 0.69099998 -0.027865725 1.2455821e-38 312 263
-0.0085054198 0.69300002 -0.027946379 1.2455821e-38 313 263
-0.0072903596 0.69300002 -0.027946379 1.2452232e-38 314 263
-0.0060753003 0.69300002 -0.027946379 1.2821014e-38 315 263
-0.00486024 0.69300002 -0.027946379 1.144132e-38 316 263
-0.0036451798 0.69300002 -0.027946379 1.1533875e-38 317 263
-0.00243012 0.69300002 -0.027946379 1.1532074e-38 318 263
-0.00121506 0.69300002 -0.027946379 1.0886705e-38 319 263
0 0.69300002 -0.027946379 1.09789e-38 320 263
0.00121506 0.69300002 -0.027946379 1.09789e-38 321 263
0.0024336267 0.69400001 -0.027986705 1.0429335e-38 322 263
0.0036504399 0.69400001 -0.027986705 1.0613726e-38 323 263
0.0048672534 0.69400001 -0.027986705 1.1534961e-38 324 263
0.0061015999 0.69599998 -0.028067358 1.1627156e-38 325 263
0.0073219193 0.69599998 -0.028067358 1.1901931e-38 326 263
0.0085545136 0.69700003 -0.028107686 1.2085964e-38 327 263
0.0097765867 0.69700003 -0.028107686 1.1901205e-38 328 263
0.01101444 0.69800001 -0.028148014 1.162462e-38 329 263
0.012238266 0.69800001 -0.028148014 1.1896534e-38 330 263
0.013500666 0.69999999 -0.028228667 1.1620307e-38 331 263
0.014727999 0.69999999 -0.028228667 1.1621026e-38 332 263
0.015978126 0.70099998 -0.028268991 1.1989808e-38 333 263
0.017256306 0.70300001 -0.028349647 1.2543332e-38 334 263
0.018515198 0.704 -0.028389972 1.2635528e-38 335 263
0.019805651 0.70599997 -0.028470624 1.2911746e-38 336 263
0.021043506 0.70599997 -0.028470624 1.2911746e-38 337 263
0.022407599 0.70999998 -0.028631933 1.383296e-38 338 263
0.023685781 0.71100003 -0.028672259 1.9088111e-38 339 263
0.024932399 0.71100003 -0.028672259 2.2035479e-38 340 263
-0.041254178 0.713 -0.030003037 2.2311711e-38 287 264
-0.040004052 0.713 -0.030003037 2.249646e-38 288 264
-0.038590867 0.70999998 -0.029876797 2.1758895e-38 289 264
-0.0372408 0.708 -0.02979264 1.8621725e-38 290 264
-0.03599944 0.708 -0.02979264 1.5487074e-38 291 264
-0.034708988 0.70700002 -0.029750559 1.5374366e-38 292 264
-0.033469379 0.70700002 -0.029750559 1.4360212e-38 293 264
-0.032093015 0.704 -0.029624319 1.5375085e-38 294 264
-0.030858666 0.704 -0.029624319 1.7218997e-38 295 264
-0.029624319 0.704 -0.029624319 1.7043616e-38 296 264
-0.028349647 0.70300001 -0.029582238 1.7688986e-38 297 264
-0.027001332 0.69999999 -0.029455997 1.6764871e-38 298 264
-0.025700359 0.69800001 -0.029371841 1.150972e-38 299 264
-0.024476532 0.69800001 -0.029371841 1.3784754e-38 300 264
-0.023219392 0.69700003 -0.02932976 1.2125231e-38 301 264
-0.02199732 0.69700003 -0.02932976 1.501029e-38 302 264
-0.020775247 0.69700003 -0.02932976 2.0726419e-38 303 264
-0.019553173 0.69700003 -0.02932976 1.559047e-38 304 264
-0.018304799 0.69599998 -0.029287677 1.5406439e-38 305 264
-0.017084479 0.69599998 -0.029287677 1.3655094e-38 306 264
-0.015818574 0.69400001 -0.029203519 1.2179963e-38 307 264
-0.01460176 0.69400001 -0.029203519 1.2640219e-38 308 264
-0.013384946 0.69400001 -0.029203519 1.2640219e-38 309 264
-0.012168133 0.69400001 -0.029203519 1.2640214e-38 310 264
-0.010935539 0.69300002 -0.029161438 1.2548018e-38 311 264
-0.0097204801 0.69300002 -0.029161438 1.2640217e-38 312 264
-0.0085054198 0.69300002 -0.029161438 1.2640217e-38 313 264
-0.0072903596 0.69300002 -0.029161438 1.2548387e-38 314 264
-0.0060840664 0.69400001 -0.029203519 1.2732778e-38 315 264
-0.00486024 0.69300002 -0.029161438 1.1256932e-38 316 264
-0.0036451798 0.69300002 -0.029161438 9.966193e-39 317 264
-0.00243012 0.69300002 -0.029161438 1.1070017e-38 318 264
-0.00121506 0.69300002 -0.029161438 1.1254408e-38 319 264
0 0.69300002 -0.029161438 1.107037e-38 320 264
0.0012168133 0.69400001 -0.029203519 1.1254761e-38 321 264
0.0024336267 0.69400001 -0.029203519 1.006054e-38 322 264
0.0036504399 0.69400001 -0.029203519 1.0521159e-38 323 264
0.0048672534 0.69400001 -0.029203519 1.2178888e-38 324 264
0.0061015999 0.69599998 -0.029287677 1.1902301e-38 325 264
0.0073219193 0.69599998 -0.029287677 1.1535307e-38 326 264
0.0085545136 0.69700003 -0.02932976 1.1535307e-38 327 264
0.0097765867 0.69700003 -0.02932976 1.171754e-38 328 264
0.01101444 0.69800001 -0.029371841 1.2085964e-38 329 264
0.012238266 0.69800001 -0.029371841 1.2356789e-38 330 264
0.013500666 0.69999999 -0.029455997 1.1711419e-38 331 264
0.014727999 0.69999999 -0.029455997 1.1345515e-38 332 264
0.016023712 0.70300001 -0.029582238 1.1990884e-38 333 264
0.017256306 0.70300001 -0.029582238 1.2175276e-38 334 264
0.018515198 0.704 -0.029624319 1.2451502e-38 335 264
0.019805651 0.70599997 -0.029708479 1.2911746e-38 336 264
0.021073313 0.70700002 -0.029750559 1.3096137e-38 337 264
0.022344479 0.708 -0.02979264 1.4477247e-38 338 264
0.023685781 0.71100003 -0.029918881 1.9456172e-38 339 264
0.024932399 0.71100003 -0.029918881 2.2035479e-38 340 264
-0.040004052 0.713 -0.031253166 2.2679772e-38 288 265
-0.038645219 0.71100003 -0.031165501 2.166562e-38 289 265
-0.037345998 0.70999998 -0.031121666 1.8529171e-38 290 265
-0.036101133 0.70999998 -0.031121666 1.6316474e-38 291 265
-0.034758076 0.708 -0.031034 1.5385877e-38 292 265
-0.033516716 0.708 -0.031034 1.2711845e-38 293 265
-0.032229774 0.70700002 -0.030990168 1.4256139e-38 294 265
-0.030946331 0.70599997 -0.030946331 1.5086259e-38 295 265
-0.029624319 0.704 -0.030858666 1.5279302e-38 296 265
-0.028349647 0.70300001 -0.030814834 1.7768584e-38 297 265
-0.027039904 0.70099998 -0.030727165 1.6301379e-38 298 265
-0.025773998 0.69999999 -0.030683333 1.2429163e-38 299 265
-0.024476532 0.69800001 -0.030595668 1.4614144e-38 300 265
-0.023219392 0.69700003 -0.030551834 1.3047178e-38 301 265
-0.02199732 0.69700003 -0.030551834 1.5009922e-38 302 265
-0.020775247 0.69700003 -0.030551834 2.0818245e-38 303 265
-0.019553173 0.69700003 -0.030551834 1.5589751e-38 304 265
-0.018304799 0.69599998 -0.030507999 1.5589751e-38 305 265
-0.017084479 0.69599998 -0.030507999 1.3654738e-38 306 265
-0.015818574 0.69400001 -0.030420333 1.1626435e-38 307 265
-0.01460176 0.69400001 -0.030420333 1.2087414e-38 308 265
-0.013384946 0.69400001 -0.030420333 1.2364002e-38 309 265
-0.012168133 0.69400001 -0.030420333 1.273098e-38 310 265
-0.01095132 0.69400001 -0.030420333 1.2546948e-38 311 265
-0.0097345067 0.69400001 -0.030420333 1.2639863e-38 312 265
-0.0085176928 0.69400001 -0.030420333 1.2824613e-38 313 265
-0.0073008798 0.69400001 -0.030420333 1.2365074e-38 314 265
-0.0060840664 0.69400001 -0.030420333 1.245727e-38 315 265
-0.0048672534 0.69400001 -0.030420333 1.2269642e-38 316 265
-0.0036504399 0.69400001 -0.030420333 1.1532077e-38 317 265
-0.0024336267 0.69400001 -0.030420333 1.1806139e-38 318 265
-0.0012168133 0.69400001 -0.030420333 1.1898334e-38 319 265
0 0.69400001 -0.030420333 1.1254764e-38 320 265
0.0012203199 0.69599998 -0.030507999 1.1162568e-38 321 265
0.0024406398 0.69599998 -0.030507999 1.1992329e-38 322 265
0.0036609597 0.69599998 -0.030507999 1.2268556e-38 323 265
0.0048812795 0.69599998 -0.030507999 1.2452232e-38 324 265
0.0061103669 0.69700003 -0.030551834 1.2083449e-38 325 265
0.00733244 0.69700003 -0.030551834 1.171755e-38 326 265
0.0085545136 0.69700003 -0.030551834 1.171755e-38 327 265
0.0097906133 0.69800001 -0.030595668 1.1717903e-38 328 265
0.01101444 0.69800001 -0.030595668 1.1717903e-38 329 265
0.012273333 0.69999999 -0.030683333 1.2268187e-38 330 265
0.013500666 0.69999999 -0.030683333 1.2175992e-38 331 265
0.014791119 0.70300001 -0.030814834 1.1897963e-38 332 265
0.016046507 0.704 -0.030858666 1.2266745e-38 333 265
0.017280852 0.704 -0.030858666 1.2084152e-38 334 265
0.018567799 0.70599997 -0.030946331 1.2268543e-38 335 265
0.019833706 0.70700002 -0.030990168 1.2819546e-38 336 265
0.021073313 0.70700002 -0.030990168 1.3925894e-38 337 265
0.022344479 0.708 -0.031034 1.512262e-38 338 265
0.023685781 0.71100003 -0.031165501 1.9456174e-38 339 265
0.024932399 0.71100003 -0.031165501 2.2402462e-38 340 265
-0.040060159 0.71399999 -0.032548878 2.2495734e-38 288 266
-0.038645219 0.71100003 -0.032412119 2.1573777e-38 289 266
-0.037345998 0.70999998 -0.032366529 1.8989784e-38 290 266
-0.036101133 0.70999998 -0.032366529 1.7329904e-38 291 266
-0.034758076 0.708 -0.03227536 1.5849735e-38 292 266
-0.033516716 0.708 -0.03227536 1.3360453e-38 293 266
-0.032229774 0.70700002 -0.032229774 1.4169316e-38 294 266
-0.030946331 0.70599997 -0.032184184 1.1864784e-38 295 266
-0.029624319 0.704 -0.032093015 1.3516053e-38 296 266
-0.028349647 0.70300001 -0.032047424 1.6190085e-38 297 266
-0.027117053 0.70300001 -0.032047424 1.5556258e-38 298 266
-0.025773998 0.69999999 -0.031910665 1.2974781e-38 299 266
-0.024476532 0.69800001 -0.031819493 1.433863e-38 300 266
-0.023252707 0.69800001 -0.031819493 1.2125934e-38 301 266
-0.02199732 0.69700003 -0.03177391 1.5102839e-38 302 266
-0.020775247 0.69700003 -0.03177391 2.0726771e-38 303 266
-0.019581227 0.69800001 -0.031819493 1.5681947e-38 304 266
-0.018331099 0.69700003 -0.03177391 1.5589751e-38 305 266
-0.017109027 0.69700003 -0.03177391 1.3562897e-38 306 266
-0.015864158 0.69599998 -0.031728316 1.1349844e-38 307 266
-0.014643839 0.69599998 -0.031728316 1.1718633e-38 308 266
-0.013423519 0.69599998 -0.031728316 1.217961e-38 309 266
-0.012168133 0.69400001 -0.031637147 1.2179254e-38 310 266
-0.01095132 0.69400001 -0.031637147 1.2087058e-38 311 266
-0.0097345067 0.69400001 -0.031637147 1.2546596e-38 312 266
-0.0085176928 0.69400001 -0.031637147 1.2546596e-38 313 266
-0.0073008798 0.69400001 -0.031637147 1.1904462e-38 314 266
-0.0061015999 0.69599998 -0.031728316 1.2089213e-38 315 266
-0.0048812795 0.69599998 -0.031728316 1.2271804e-38 316 266
-0.0036504399 0.69400001 -0.031637147 1.2271804e-38 317 266
-0.0024336267 0.69400001 -0.031637147 1.3189067e-38 318 266
-0.0012203199 0.69599998 -0.031728316 1.3281623e-38 319 266
0 0.69700003 -0.03177391 1.1441323e-38 320 266
0.0012220733 0.69700003 -0.03177391 1.0611562e-38 321 266
0.0024441467 0.69700003 -0.03177391 1.2730267e-38 322 266
0.00366622 0.69700003 -0.03177391 1.2822462e-38 323 266
0.0048882933 0.69700003 -0.03177391 1.1900133e-38 324 266
0.0061103669 0.69700003 -0.03177391 1.1715383e-38 325 266
0.00733244 0.69700003 -0.03177391 1.1992695e-38 326 266
0.0085545136 0.69700003 -0.03177391 1.1992695e-38 327 266
0.0097906133 0.69800001 -0.031819493 1.1992329e-38 328 266
0.01101444 0.69800001 -0.031819493 1.2084525e-38 329 266
0.012273333 0.69999999 -0.031910665 1.2638049e-38 330 266
0.013519952 0.70099998 -0.031956252 1.3006831e-38 331 266
0.014812159 0.704 -0.032093015 1.2911746e-38 332 266
0.016092092 0.70599997 -0.032184184 1.2911746e-38 333 266
0.017329946 0.70599997 -0.032184184 1.2452562e-38 334 266
0.018567799 0.70599997 -0.032184184 1.2544757e-38 335 266
0.01986176 0.708 -0.03227536 1.2912465e-38 336 266
0.021103119 0.708 -0.03227536 1.365003e-38 337 266
0.022407599 0.70999998 -0.032366529 1.4664165e-38 338 266
0.023752406 0.713 -0.032503292 1.8905166e-38 339 266
0.025002534 0.713 -0.032503292 2.2125879e-38 340 266
-0.040060159 0.71399999 -0.033800758 2.2771965e-38 288 267
-0.038753927 0.713 -0.033753417 2.2126595e-38 289 267
-0.037398599 0.71100003 -0.033658739 1.9635518e-38 290 267
-0.036101133 0.70999998 -0.033611398 1.7976356e-38 291 267
-0.034758076 0.708 -0.033516716 1.5484925e-38 292 267
-0.033516716 0.708 -0.033516716 1.327187e-38 293 267
-0.032229774 0.70700002 -0.033469379 1.5568118e-38 294 267
-0.030946331 0.70599997 -0.033422034 1.4000432e-38 295 267
-0.029708479 0.70599997 -0.033422034 1.4077862e-38 296 267
-0.028349647 0.70300001 -0.033280019 1.1957362e-38 297 267
-0.027117053 0.70300001 -0.033280019 1.3605368e-38 298 267
-0.025810819 0.70099998 -0.03318534 1.3789399e-38 299 267
-0.024546666 0.69999999 -0.033137999 1.4247491e-38 300 267
-0.023252707 0.69800001 -0.033043321 1.2403578e-38 301 267
-0.02199732 0.69700003 -0.03299598 1.5010631e-38 302 267
-0.020775247 0.69700003 -0.03299598 2.0818595e-38 303 267
-0.019581227 0.69800001 -0.033043321 1.6049287e-38 304 267
-0.0183574 0.69800001 -0.033043321 1.5864896e-38 305 267
-0.017109027 0.69700003 -0.03299598 1.3930958e-38 306 267
-0.015886955 0.69700003 -0.03299598 1.2179241e-38 307 267
-0.01466488 0.69700003 -0.03299598 1.1718633e-38 308 267
-0.013442807 0.69700003 -0.03299598 1.217961e-38 309 267
-0.0122032 0.69599998 -0.032948639 1.1903746e-38 310 267
-0.010982879 0.69599998 -0.032948639 1.181155e-38 311 267
-0.0097625591 0.69599998 -0.032948639 1.1902667e-38 312 267
-0.0085422397 0.69599998 -0.032948639 1.1718636e-38 313 267
-0.0073219193 0.69599998 -0.032948639 1.1446728e-38 314 267
-0.0061015999 0.69599998 -0.032948639 1.1723674e-38 315 267
-0.0048812795 0.69599998 -0.032948639 1.1443491e-38 316 267
-0.0036609597 0.69599998 -0.032948639 1.1535687e-38 317 267
-0.0024406398 0.69599998 -0.032948639 1.3007207e-38 318 267
-0.0012220733 0.69700003 -0.03299598 1.3283434e-38 319 267
0 0.69700003 -0.03299598 1.1994494e-38 320 267
0.0012220733 0.69700003 -0.03299598 1.144132e-38 321 267
0.0024441467 0.69700003 -0.03299598 1.1718986e-38 322 267
0.00366622 0.69700003 -0.03299598 1.1995213e-38 323 267
0.0048882933 0.69700003 -0.03299598 1.2360753e-38 324 267
0.0061103669 0.69700003 -0.03299598 1.2360753e-38 325 267
0.0073429602 0.69800001 -0.033043321 1.1993051e-38 326 267
0.0085667865 0.69800001 -0.033043321 1.1900496e-38 327 267
0.0097906133 0.69800001 -0.033043321 1.1994844e-38 328 267
0.011045999 0.69999999 -0.033137999 1.2087399e-38 329 267
0.012273333 0.69999999 -0.033137999 1.2362538e-38 330 267
0.013558527 0.70300001 -0.033280019 1.2546569e-38 331 267
0.014812159 0.704 -0.03332736 1.263732e-38 332 267
0.016092092 0.70599997 -0.033422034 1.2453289e-38 333 267
0.017329946 0.70599997 -0.033422034 1.2453286e-38 334 267
0.0186204 0.708 -0.033516716 1.2914263e-38 335 267
0.019917866 0.70999998 -0.033611398 1.3741507e-38 336 267
0.021162732 0.70999998 -0.033611398 1.3649311e-38 337 267
0.022439159 0.71100003 -0.033658739 1.374221e-38 338 267
0.023752406 0.713 -0.033753417 1.8720773e-38 339 267
0.025002534 0.713 -0.033753417 2.185109e-38 340 267
-0.040060159 0.71399999 -0.035052639 2.2864882e-38 288 268
-0.038808275 0.71399999 -0.035052639 2.2311708e-38 289 268
-0.037398599 0.71100003 -0.034905359 2.0005745e-38 290 268
-0.036101133 0.70999998 -0.034856264 1.8161833e-38 291 268
-0.034856264 0.70999998 -0.034856264 1.594951e-38 292 268
-0.033516716 0.708 -0.034758076 1.4382183e-38 293 268
-0.032229774 0.70700002 -0.034708988 1.5488891e-38 294 268
-0.030990168 0.70700002 -0.034708988 1.5119748e-38 295 268
-0.029708479 0.70599997 -0.034659892 1.3915423e-38 296 268
-0.028389972 0.704 -0.034561705 1.1333946e-38 297 268
-0.027117053 0.70300001 -0.034512613 1.2880378e-38 298 268
-0.025810819 0.70099998 -0.034414422 1.1404889e-38 299 268
-0.024546666 0.69999999 -0.034365334 1.323621e-38 300 268
-0.023319334 0.69999999 -0.034365334 1.1300102e-38 301 268
-0.02202888 0.69800001 -0.034267146 1.4825879e-38 302 268
-0.020805053 0.69800001 -0.034267146 2.1002986e-38 303 268
-0.019581227 0.69800001 -0.034267146 1.5866695e-38 304 268
-0.0183574 0.69800001 -0.034267146 1.5774498e-38 305 268
-0.017133573 0.69800001 -0.034267146 1.4299383e-38 306 268
-0.015909746 0.69800001 -0.034267146 1.2455471e-38 307 268
-0.01466488 0.69700003 -0.034218054 1.1627159e-38 308 268
-0.013442807 0.69700003 -0.034218054 1.1903746e-38 309 268
-0.012220734 0.69700003 -0.034218054 1.1811913e-38 310 268
-0.010982879 0.69599998 -0.034168959 1.1811913e-38 311 268
-0.0097625591 0.69599998 -0.034168959 1.1811913e-38 312 268
-0.0085422397 0.69599998 -0.034168959 1.1811913e-38 313 268
-0.0073219193 0.69599998 -0.034168959 1.1628967e-38 314 268
-0.0061103669 0.69700003 -0.034218054 1.1444936e-38 315 268
-0.0048953067 0.69800001 -0.034267146 1.2085992e-38 316 268
-0.0036714801 0.69800001 -0.034267146 1.2178187e-38 317 268
-0.0024476533 0.69800001 -0.034267146 1.2731709e-38 318 268
-0.0012238267 0.69800001 -0.034267146 1.3192687e-38 319 268
0 0.69800001 -0.034267146 1.1718989e-38 320 268
0.0012238267 0.69800001 -0.034267146 1.1349846e-38 321 268
0.0024476533 0.69800001 -0.034267146 1.1992698e-38 322 268
0.00366622 0.69700003 -0.034218054 1.217709e-38 323 268
0.0048882933 0.69700003 -0.034218054 1.2452951e-38 324 268
0.006119133 0.69800001 -0.034267146 1.2452951e-38 325 268
0.0073429602 0.69800001 -0.034267146 1.2360033e-38 326 268
0.0085667865 0.69800001 -0.034267146 1.2360033e-38 327 268
0.0098186666 0.69999999 -0.034365334 1.19952e-38 328 268
0.011045999 0.69999999 -0.034365334 1.2179592e-38 329 268
0.012290866 0.70099998 -0.034414422 1.2636967e-38 330 268
0.013577812 0.704 -0.034561705 1.2636967e-38 331 268
0.014812159 0.704 -0.034561705 1.2912112e-38 332 268
0.016092092 0.70599997 -0.034659892 1.2912112e-38 333 268
0.017354494 0.70700002 -0.034708988 1.3464919e-38 334 268
0.0186204 0.708 -0.034758076 1.3557116e-38 335 268
0.01994592 0.71100003 -0.034905359 1.3925538e-38 336 268
0.021192541 0.71100003 -0.034905359 1.3372723e-38 337 268
0.022502279 0.713 -0.035003547 1.4108472e-38 338 268
0.02378572 0.71399999 -0.035052639 1.9271426e-38 339 268
0.025107734 0.71600002 -0.035150826 2.2402106e-38 340 268
-0.038808275 0.71399999 -0.036304519 2.2311345e-38 289 269
-0.037503798 0.713 -0.036253672 1.9914626e-38 290 269
-0.036151983 0.71100003 -0.036151983 1.7701929e-38 291 269
-0.034856264 0.70999998 -0.036101133 1.6505201e-38 292 269
-0.033516716 0.708 -0.03599944 1.6689952e-38 293 269
-0.032229774 0.70700002 -0.035948593 1.614111e-38 294 269
-0.030990168 0.70700002 -0.035948593 1.5311349e-38 295 269
-0.029708479 0.70599997 -0.035897743 1.4756025e-38 296 269
-0.028389972 0.704 -0.035796054 1.4940416e-38 297 269
-0.027155625 0.704 -0.035796054 1.6128846e-38 298 269
-0.025810819 0.70099998 -0.035643511 1.2071879e-38 299 269
-0.024546666 0.69999999 -0.035592664 1.2787814e-38 300 269
-0.023319334 0.69999999 -0.035592664 9.3765757e-39 301 269
-0.02202888 0.69800001 -0.035490975 1.4456727e-38 302 269
-0.020805053 0.69800001 -0.035490975 2.1002617e-38 303 269
-0.019581227 0.69800001 -0.035490975 1.5866698e-38 304 269
-0.0183574 0.69800001 -0.035490975 1.5774501e-38 305 269
-0.017133573 0.69800001 -0.035490975 1.4299383e-38 306 269
-0.015909746 0.69800001 -0.035490975 1.2363275e-38 307 269
-0.01466488 0.69700003 -0.035440128 1.1903749e-38 308 269
-0.013442807 0.69700003 -0.035440128 1.1995944e-38 309 269
-0.012220734 0.69700003 -0.035440128 1.2181056e-38 310 269
-0.01099866 0.69700003 -0.035440128 1.208886e-38 311 269
-0.0097765867 0.69700003 -0.035440128 1.2182131e-38 312 269
-0.0085545136 0.69700003 -0.035440128 1.2089576e-38 313 269
-0.00733244 0.69700003 -0.035440128 1.2179259e-38 314 269
-0.006119133 0.69800001 -0.035490975 1.2086705e-38 315 269
-0.0048953067 0.69800001 -0.035490975 1.2178904e-38 316 269
-0.0036714801 0.69800001 -0.035490975 1.2271101e-38 317 269
-0.0024476533 0.69800001 -0.035490975 1.2364368e-38 318 269
-0.0012238267 0.69800001 -0.035490975 1.2825346e-38 319 269
0 0.69800001 -0.035490975 1.2087058e-38 320 269
0.0012238267 0.69800001 -0.035490975 1.1902667e-38 321 269
0.0024476533 0.69800001 -0.035490975 1.1902301e-38 322 269
0.0036714801 0.69800001 -0.035490975 1.1994497e-38 323 269
0.0048953067 0.69800001 -0.035490975 1.2361837e-38 324 269
0.006119133 0.69800001 -0.035490975 1.2361837e-38 325 269
0.0073639993 0.69999999 -0.035592664 1.2360756e-38 326 269
0.0085913334 0.69999999 -0.035592664 1.2360756e-38 327 269
0.0098186666 0.69999999 -0.035592664 1.2178515e-38 328 269
0.011061779 0.70099998 -0.035643511 1.2178515e-38 329 269
0.012325933 0.70300001 -0.035745207 1.2361109e-38 330 269
0.013577812 0.704 -0.035796054 1.2453304e-38 331 269
0.014854239 0.70599997 -0.035897743 1.2912841e-38 332 269
0.016114887 0.70700002 -0.035948593 1.3281623e-38 333 269
0.017379038 0.708 -0.03599944 1.4109216e-38 334 269
0.018672999 0.70999998 -0.036101133 1.383227e-38 335 269
0.01994592 0.71100003 -0.036151983 1.3189771e-38 336 269
0.021252153 0.713 -0.036253672 1.2821348e-38 337 269
0.022502279 0.713 -0.036253672 1.3926241e-38 338 269
0.023852346 0.71600002 -0.036406212 1.9273947e-38 339 269
0.025107734 0.71600002 -0.036406212 2.249466e-38 340 269
0.026363119 0.71600002 -0.036406212 2.2033684e-38 341 269
-0.038808275 0.71399999 -0.037556399 2.221915e-38 289 270
-0.037503798 0.713 -0.037503798 1.9914626e-38 290 270
-0.036151983 0.71100003 -0.037398599 1.7701929e-38 291 270
-0.034856264 0.70999998 -0.037345998 1.5677965e-38 292 270
-0.033516716 0.708 -0.0372408 1.5216986e-38 293 270
-0.032229774 0.70700002 -0.037188202 1.4944016e-38 294 270
-0.030990168 0.70700002 -0.037188202 1.4574873e-38 295 270
-0.029708479 0.70599997 -0.037135597 1.402063e-38 296 270
-0.028389972 0.704 -0.037030395 1.5311369e-38 297 270
-0.027155625 0.704 -0.037030395 1.6876156e-38 298 270
-0.025884461 0.70300001 -0.036977798 1.5954198e-38 299 270
-0.024581732 0.70099998 -0.036872596 1.4835568e-38 300 270
-0.023319334 0.69999999 -0.036819998 1.0871156e-38 301 270
-0.022091998 0.69999999 -0.036819998 1.4187347e-38 302 270
-0.020864666 0.69999999 -0.036819998 1.9442498e-38 303 270
-0.019637333 0.69999999 -0.036819998 1.6142927e-38 304 270
-0.018409999 0.69999999 -0.036819998 1.5866342e-38 305 270
-0.017133573 0.69800001 -0.0367148 1.4299027e-38 306 270
-0.015909746 0.69800001 -0.0367148 1.2086693e-38 307 270
-0.01468592 0.69800001 -0.0367148 1.2547318e-38 308 270
-0.013462093 0.69800001 -0.0367148 1.2823904e-38 309 270
-0.012238266 0.69800001 -0.0367148 1.319232e-38 310 270
-0.01099866 0.69700003 -0.036662199 1.300757e-38 311 270
-0.0097765867 0.69700003 -0.036662199 1.2640229e-38 312 270
-0.0085667865 0.69800001 -0.0367148 1.2364002e-38 313 270
-0.0073429602 0.69800001 -0.0367148 1.2362569e-38 314 270
-0.006119133 0.69800001 -0.0367148 1.2454766e-38 315 270
-0.0048953067 0.69800001 -0.0367148 1.2272529e-38 316 270
-0.0036714801 0.69800001 -0.0367148 1.2179974e-38 317 270
-0.0024476533 0.69800001 -0.0367148 1.227181e-38 318 270
-0.0012238267 0.69800001 -0.0367148 1.2640232e-38 319 270
0 0.69800001 -0.0367148 1.2546596e-38 320 270
0.0012238267 0.69800001 -0.0367148 1.2362203e-38 321 270
0.0024476533 0.69800001 -0.0367148 1.2177809e-38 322 270
0.0036714801 0.69800001 -0.0367148 1.2085614e-38 323 270
0.0048953067 0.69800001 -0.0367148 1.2269286e-38 324 270
0.006119133 0.69800001 -0.0367148 1.2269286e-38 325 270
0.0073639993 0.69999999 -0.036819998 1.2269642e-38 326 270
0.0085913334 0.69999999 -0.036819998 1.2269642e-38 327 270
0.0098186666 0.69999999 -0.036819998 1.2270355e-38 328 270
0.011061779 0.70099998 -0.036872596 1.2085964e-38 329 270
0.012325933 0.70300001 -0.036977798 1.1166884e-38 330 270
0.013616386 0.70599997 -0.037135597 1.1535307e-38 331 270
0.014854239 0.70599997 -0.037135597 1.2547298e-38 332 270
0.01613768 0.708 -0.0372408 1.273133e-38 333 270
0.017379038 0.708 -0.0372408 1.300431e-38 334 270
0.018672999 0.70999998 -0.037345998 1.2819919e-38 335 270
0.01994592 0.71100003 -0.037398599 1.1809357e-38 336 270
0.021252153 0.713 -0.037503798 1.1901553e-38 337 270
0.022533838 0.71399999 -0.037556399 1.3743651e-38 338 270
0.023852346 0.71600002 -0.037661601 1.9183193e-38 339 270
0.025107734 0.71600002 -0.037661601 2.2219515e-38 340 270
0.026363119 0.71600002 -0.037661601 2.1758539e-38 341 270
-0.038808275 0.71399999 -0.038808275 2.2126595e-38 289 271
-0.037503798 0.713 -0.038753927 1.9546565e-38 290 271
-0.036151983 0.71100003 -0.038645219 1.7610457e-38 291 271
-0.034856264 0.70999998 -0.038590867 1.5863434e-38 292 271
-0.033611398 0.70999998 -0.038590867 1.4756727e-38 293 271
-0.03227536 0.708 -0.038482159 1.4022773e-38 294 271
-0.030990168 0.70700002 -0.038427804 1.3746545e-38 295 271
-0.029708479 0.70599997 -0.038373452 1.3929506e-38 296 271
-0.028389972 0.704 -0.038264744 1.4759269e-38 297 271
-0.027155625 0.704 -0.038264744 1.5773419e-38 298 271
-0.025884461 0.70300001 -0.038210396 1.6880127e-38 299 271
-0.024651866 0.70300001 -0.038210396 1.7702319e-38 300 271
-0.023319334 0.69999999 -0.038047329 1.4660222e-38 301 271
-0.022091998 0.69999999 -0.038047329 1.4936097e-38 302 271
-0.020864666 0.69999999 -0.038047329 1.7241346e-38 303 271
-0.019637333 0.69999999 -0.038047329 1.5867064e-38 304 271
-0.018409999 0.69999999 -0.038047329 1.5774868e-38 305 271
-0.017182667 0.69999999 -0.038047329 1.4299027e-38 306 271
-0.015955333 0.69999999 -0.038047329 1.2178888e-38 307 271
-0.01468592 0.69800001 -0.037938625 1.263951e-38 308 271
-0.013462093 0.69800001 -0.037938625 1.3008291e-38 309 271
-0.012238266 0.69800001 -0.037938625 1.3192317e-38 310 271
-0.01101444 0.69800001 -0.037938625 1.291573e-38 311 271
-0.0097906133 0.69800001 -0.037938625 1.2638067e-38 312 271
-0.0085667865 0.69800001 -0.037938625 1.2545871e-38 313 271
-0.0073429602 0.69800001 -0.037938625 1.2362203e-38 314 271
-0.006119133 0.69800001 -0.037938625 1.2546596e-38 315 271
-0.0049093333 0.69999999 -0.038047329 1.2547315e-38 316 271
-0.0036714801 0.69800001 -0.037938625 1.2362922e-38 317 271
-0.0024476533 0.69800001 -0.037938625 1.2362206e-38 318 271
-0.0012273333 0.69999999 -0.038047329 1.2362206e-38 319 271
0 0.69800001 -0.037938625 1.2454402e-38 320 271
0.0012238267 0.69800001 -0.037938625 1.2454402e-38 321 271
0.0024476533 0.69800001 -0.037938625 1.2361484e-38 322 271
0.0036714801 0.69800001 -0.037938625 1.2269289e-38 323 271
