# .PCD v.7 - Point Cloud Data file format
FIELDS x y z rgb imX imY
SIZE 4 4 4 4 4 4
TYPE F F F F F F
COUNT 1 1 1 1 1 1
WIDTH 836
HEIGHT 1
VIEWPOINT 0 0 0 1 0 0 0
POINTS 836
DATA ascii
-0.00733244 0.69700003 -0.036662199 1.2364358e-38 314 270
-0.006119133 0.69800001 -0.0367148 1.254839e-38 315 270
-0.0048953067 0.69800001 -0.0367148 1.273098e-38 316 270
-0.0036714801 0.69800001 -0.0367148 1.273098e-38 317 270
-0.0024476533 0.69800001 -0.0367148 1.2364356e-38 318 270
-0.0012238267 0.69800001 -0.0367148 1.2087409e-38 319 270
0 0.69800001 -0.0367148 1.1261601e-38 320 270
0.0012238267 0.69800001 -0.0367148 1.1353797e-38 321 270
0.0024476533 0.69800001 -0.0367148 1.1904452e-38 322 270
0.0036714801 0.69800001 -0.0367148 1.1719702e-38 323 270
0.0048953067 0.69800001 -0.0367148 1.2085611e-38 324 270
0.006119133 0.69800001 -0.0367148 1.2177806e-38 325 270
0.0073639993 0.69999999 -0.036819998 1.2178162e-38 326 270
0.0085913334 0.69999999 -0.036819998 1.2178162e-38 327 270
0.0098186666 0.69999999 -0.036819998 1.25455e-38 328 270
0.011061779 0.70099998 -0.036872596 1.273025e-38 329 270
0.012343466 0.704 -0.037030395 1.3006829e-38 330 270
0.013616386 0.70599997 -0.037135597 1.3006829e-38 331 270
0.01487528 0.70700002 -0.037188202 1.2914985e-38 332 270
0.01613768 0.708 -0.0372408 1.2914985e-38 333 270
0.017428132 0.70999998 -0.037345998 1.3464919e-38 334 270
0.018672999 0.70999998 -0.037345998 1.3372723e-38 335 270
0.01994592 0.71100003 -0.037398599 1.3553513e-38 336 270
0.021252153 0.713 -0.037503798 1.401485e-38 337 270
0.022502279 0.713 -0.037503798 1.5859463e-38 338 270
0.02378572 0.71399999 -0.037556399 2.0838027e-38 339 270
0.025037598 0.71399999 -0.037556399 2.2218428e-38 340 270
0.026289478 0.71399999 -0.037556399 2.175709e-38 341 270
-0.040789545 0.727 -0.039514873 2.2495736e-38 288 271
-0.039134402 0.72000003 -0.039134402 2.157378e-38 289 271
-0.037871998 0.72000003 -0.039134402 1.8810802e-38 290 271
-0.036151983 0.71100003 -0.038645219 1.7335671e-38 291 271
-0.034758076 0.708 -0.038482159 1.6044596e-38 292 271
-0.033516716 0.708 -0.038482159 1.5215195e-38 293 271
-0.032229774 0.70700002 -0.038427804 1.512481e-38 294 271
-0.030946331 0.70599997 -0.038373452 1.512481e-38 295 271
-0.029708479 0.70599997 -0.038373452 1.5034414e-38 296 271
-0.028389972 0.704 -0.038264744 1.6601379e-38 297 271
-0.027117053 0.70300001 -0.038210396 1.7063068e-38 298 271
-0.025884461 0.70300001 -0.038210396 1.614111e-38 299 271
-0.024581732 0.70099998 -0.038101684 1.5865249e-38 300 271
-0.023319334 0.69999999 -0.038047329 1.6418423e-38 301 271
-0.022091998 0.69999999 -0.038047329 1.5038026e-38 302 271
-0.020864666 0.69999999 -0.038047329 1.3931677e-38 303 271
-0.019637333 0.69999999 -0.038047329 1.172187e-38 304 271
-0.018409999 0.69999999 -0.038047329 1.172187e-38 305 271
-0.017182667 0.69999999 -0.038047329 1.2825699e-38 306 271
-0.015955333 0.69999999 -0.038047329 1.2456917e-38 307 271
-0.01468592 0.69800001 -0.037938625 1.2547671e-38 308 271
-0.013462093 0.69800001 -0.037938625 1.2455475e-38 309 271
-0.012238266 0.69800001 -0.037938625 1.2546952e-38 310 271
-0.01101444 0.69800001 -0.037938625 1.2546952e-38 311 271
-0.0097906133 0.69800001 -0.037938625 1.2639863e-38 312 271
-0.0085667865 0.69800001 -0.037938625 1.2639863e-38 313 271
-0.0073429602 0.69800001 -0.037938625 1.2730983e-38 314 271
-0.006119133 0.69800001 -0.037938625 1.2730983e-38 315 271
-0.0048953067 0.69800001 -0.037938625 1.2547668e-38 316 271
-0.0036714801 0.69800001 -0.037938625 1.2732059e-38 317 271
-0.0024476533 0.69800001 -0.037938625 1.2732412e-38 318 271
-0.0012238267 0.69800001 -0.037938625 1.2363628e-38 319 271
0 0.69800001 -0.037938625 1.1812251e-38 320 271
0.0012238267 0.69800001 -0.037938625 1.1904447e-38 321 271
0.0024476533 0.69800001 -0.037938625 1.2637701e-38 322 271
0.0036714801 0.69800001 -0.037938625 1.2452951e-38 323 271
0.0048953067 0.69800001 -0.037938625 1.2269289e-38 324 271
0.0061366665 0.69999999 -0.038047329 1.2269289e-38 325 271
0.0073639993 0.69999999 -0.038047329 1.1994141e-38 326 271
0.0085913334 0.69999999 -0.038047329 1.180975e-38 327 271
0.0098326923 0.70099998 -0.038101684 1.3280914e-38 328 271
0.011061779 0.70099998 -0.038101684 1.3465664e-38 329 271
0.012343466 0.704 -0.038264744 1.346673e-38 330 271
0.013616386 0.70599997 -0.038373452 1.3282339e-38 331 271
0.01487528 0.70700002 -0.038427804 1.2821714e-38 332 271
0.01613768 0.708 -0.038482159 1.2360736e-38 333 271
0.017428132 0.70999998 -0.038590867 1.2634799e-38 334 271
0.0186993 0.71100003 -0.038645219 1.2911746e-38 335 271
0.020002026 0.713 -0.038753927 1.28199e-38 336 271
0.021281958 0.71399999 -0.038808275 1.3557465e-38 337 271
0.022596961 0.71600002 -0.038916986 1.6135327e-38 338 271
0.02388566 0.71700001 -0.038971342 2.092986e-38 339 271
0.0251428 0.71700001 -0.038971342 2.2218425e-38 340 271
-0.040677335 0.72500002 -0.040677335 2.2403904e-38 288 272
-0.039134402 0.72000003 -0.040396802 2.1205721e-38 289 272
-0.037871998 0.72000003 -0.040396802 1.7888489e-38 290 272
-0.036151983 0.71100003 -0.039891839 1.6505554e-38 291 272
-0.034856264 0.70999998 -0.039835732 1.6138589e-38 292 272
-0.033516716 0.708 -0.039723519 1.5216633e-38 293 272
-0.03227536 0.708 -0.039723519 1.5215561e-38 294 272
-0.030990168 0.70700002 -0.039667413 1.5215561e-38 295 272
-0.029708479 0.70599997 -0.039611302 1.4022055e-38 296 272
-0.028389972 0.704 -0.039499093 1.5312794e-38 297 272
-0.027155625 0.704 -0.039499093 1.6510981e-38 298 272
-0.025884461 0.70300001 -0.039442986 1.6050362e-38 299 272
-0.024651866 0.70300001 -0.039442986 1.5683021e-38 300 272
-0.023352645 0.70099998 -0.039330769 1.5775218e-38 301 272
-0.022123558 0.70099998 -0.039330769 1.4946905e-38 302 272
-0.020894472 0.70099998 -0.039330769 1.3748362e-38 303 272
-0.019665385 0.70099998 -0.039330769 1.0434001e-38 304 272
-0.018436298 0.70099998 -0.039330769 1.0434001e-38 305 272
-0.017182667 0.69999999 -0.039274666 1.3562897e-38 306 272
-0.015955333 0.69999999 -0.039274666 1.3285952e-38 307 272
-0.01468592 0.69800001 -0.039162453 1.310084e-38 308 272
-0.013462093 0.69800001 -0.039162453 1.3193037e-38 309 272
-0.012238266 0.69800001 -0.039162453 1.3467829e-38 310 272
-0.01101444 0.69800001 -0.039162453 1.3191241e-38 311 272
-0.0097906133 0.69800001 -0.039162453 1.2732059e-38 312 272
-0.0085667865 0.69800001 -0.039162453 1.2732059e-38 313 272
-0.0073429602 0.69800001 -0.039162453 1.2732059e-38 314 272
-0.006119133 0.69800001 -0.039162453 1.2639863e-38 315 272
-0.0048953067 0.69800001 -0.039162453 1.2272879e-38 316 272
-0.0036714801 0.69800001 -0.039162453 1.2272879e-38 317 272
-0.0024476533 0.69800001 -0.039162453 1.2731336e-38 318 272
-0.0012238267 0.69800001 -0.039162453 1.2731336e-38 319 272
0 0.69800001 -0.039162453 1.291608e-38 320 272
0.0012238267 0.69800001 -0.039162453 1.291608e-38 321 272
0.0024476533 0.69800001 -0.039162453 1.3466017e-38 322 272
0.0036714801 0.69800001 -0.039162453 1.318907e-38 323 272
0.0048953067 0.69800001 -0.039162453 1.2360033e-38 324 272
0.0061366665 0.69999999 -0.039274666 1.199125e-38 325 272
0.0073639993 0.69999999 -0.039274666 1.245007e-38 326 272
0.0085913334 0.69999999 -0.039274666 1.1527755e-38 327 272
0.0098326923 0.70099998 -0.039330769 1.217312e-38 328 272
0.01109334 0.70300001 -0.039442986 1.2265676e-38 329 272
0.012343466 0.704 -0.039499093 1.1901203e-38 330 272
0.013616386 0.70599997 -0.039611302 1.2085594e-38 331 272
0.01487528 0.70700002 -0.039667413 1.2544051e-38 332 272
0.016183265 0.70999998 -0.039835732 1.2175629e-38 333 272
0.01745268 0.71100003 -0.039891839 1.2448616e-38 334 272
0.018751899 0.713 -0.040004052 1.2448616e-38 335 272
0.020086186 0.71600002 -0.040172372 1.1257616e-38 336 272
0.021371379 0.71700001 -0.040228479 1.2732387e-38 337 272
0.02262852 0.71700001 -0.040228479 1.6780699e-38 338 272
0.02388566 0.71700001 -0.040228479 2.1205731e-38 339 272
0.0251428 0.71700001 -0.040228479 2.2402459e-38 340 272
-0.040565118 0.72299999 -0.041832779 2.2588655e-38 288 273
-0.039134402 0.72000003 -0.041659199 2.1020969e-38 289 273
-0.037871998 0.72000003 -0.041659199 1.6782148e-38 290 273
-0.036253672 0.713 -0.041254178 1.5214462e-38 291 273
-0.034905359 0.71100003 -0.041138459 1.5495741e-38 292 273
-0.033611398 0.70999998 -0.041080594 1.5495741e-38 293 273
-0.03227536 0.708 -0.040964879 1.6230062e-38 294 273
-0.030990168 0.70700002 -0.040907022 1.5769085e-38 295 273
-0.029750559 0.70700002 -0.040907022 1.3379554e-38 296 273
-0.028470624 0.70599997 -0.040849157 1.4578097e-38 297 273
-0.027155625 0.704 -0.040733438 1.5867044e-38 298 273
-0.025884461 0.70300001 -0.040675577 1.6051077e-38 299 273
-0.024651866 0.70300001 -0.040675577 1.6051079e-38 300 273
-0.023352645 0.70099998 -0.040559858 1.6051079e-38 301 273
-0.022123558 0.70099998 -0.040559858 1.5314962e-38 302 273
-0.020894472 0.70099998 -0.040559858 1.3747996e-38 303 273
-0.019721493 0.70300001 -0.040675577 8.4996921e-39 304 273
-0.018436298 0.70099998 -0.040559858 9.0528659e-39 305 273
-0.017207211 0.70099998 -0.040559858 1.3282715e-38 306 273
-0.015955333 0.69999999 -0.040502001 1.402028e-38 307 273
-0.014727999 0.69999999 -0.040502001 1.3561097e-38 308 273
-0.013500666 0.69999999 -0.040502001 1.3837684e-38 309 273
-0.012238266 0.69800001 -0.040386278 1.3748731e-38 310 273
-0.01101444 0.69800001 -0.040386278 1.3840926e-38 311 273
-0.0097906133 0.69800001 -0.040386278 1.4481624e-38 312 273
-0.0085667865 0.69800001 -0.040386278 1.3190885e-38 313 273
-0.0073429602 0.69800001 -0.040386278 1.2732428e-38 314 273
-0.006119133 0.69800001 -0.040386278 1.2732428e-38 315 273
-0.0049093333 0.69999999 -0.040502001 1.2457273e-38 316 273
-0.0036714801 0.69800001 -0.040386278 1.2272523e-38 317 273
-0.0024476533 0.69800001 -0.040386278 1.1719705e-38 318 273
-0.0012273333 0.69999999 -0.040502001 1.1719705e-38 319 273
0 0.69800001 -0.040386278 1.291573e-38 320 273
0.0012238267 0.69800001 -0.040386278 1.2454752e-38 321 273
0.0024476533 0.69800001 -0.040386278 1.3096875e-38 322 273
0.0036714801 0.69800001 -0.040386278 1.2451505e-38 323 273
0.0049093333 0.69999999 -0.040502001 1.0520066e-38 324 273
0.0061366665 0.69999999 -0.040502001 1.0520066e-38 325 273
0.0073745195 0.70099998 -0.040559858 1.2356776e-38 326 273
0.0086036054 0.70099998 -0.040559858 1.207983e-38 327 273
0.0098607466 0.70300001 -0.040675577 1.1348016e-38 328 273
0.011109119 0.704 -0.040733438 1.1624243e-38 329 273
0.012378532 0.70599997 -0.040849157 1.1532777e-38 330 273
0.013616386 0.70599997 -0.040849157 1.1809004e-38 331 273
0.01487528 0.70700002 -0.040907022 1.19916e-38 332 273
0.016183265 0.70999998 -0.041080594 1.1807569e-38 333 273
0.01745268 0.71100003 -0.041138459 1.1807922e-38 334 273
0.018751899 0.713 -0.041254178 1.2176345e-38 335 273
0.020086186 0.71600002 -0.041427758 1.2544755e-38 336 273
0.021371379 0.71700001 -0.041485619 1.3743298e-38 337 273
0.02262852 0.71700001 -0.041485619 1.7241321e-38 338 273
0.02388566 0.71700001 -0.041485619 2.1390125e-38 339 273
0.0251428 0.71700001 -0.041485619 2.2679769e-38 340 273
0.02639994 0.71700001 -0.041485619 2.1850367e-38 341 273
-0.040396802 0.72000003 -0.042921603 2.2771967e-38 288 274
-0.039134402 0.72000003 -0.042921603 2.1205002e-38 289 274
-0.037871998 0.72000003 -0.042921603 1.5861631e-38 290 274
-0.036304519 0.71399999 -0.042563915 1.3280153e-38 291 274
-0.034905359 0.71100003 -0.042385083 1.56787e-38 292 274
-0.033658739 0.71100003 -0.042385083 1.6785407e-38 293 274
-0.032366529 0.70999998 -0.042325463 1.8349136e-38 294 274
-0.031034 0.708 -0.042206239 1.7796322e-38 295 274
-0.029750559 0.70700002 -0.042146627 1.5407508e-38 296 274
-0.028470624 0.70599997 -0.042087011 1.5499703e-38 297 274
-0.027155625 0.704 -0.041967787 1.5592978e-38 298 274
-0.02592128 0.704 -0.041967787 1.5685174e-38 299 274
-0.024651866 0.70300001 -0.041908171 1.586777e-38 300 274
-0.023419274 0.70300001 -0.041908171 1.6052161e-38 301 274
-0.02218668 0.70300001 -0.041908171 1.5775221e-38 302 274
-0.020954086 0.70300001 -0.041908171 1.4299731e-38 303 274
-0.019721493 0.70300001 -0.041908171 7.6706335e-39 304 274
-0.018436298 0.70099998 -0.041788943 5.6423297e-39 305 274
-0.017207211 0.70099998 -0.041788943 1.0137631e-38 306 274
-0.015978126 0.70099998 -0.041788943 1.0875196e-38 307 274
-0.014727999 0.69999999 -0.041729331 8.4017596e-39 308 274
-0.013500666 0.69999999 -0.041729331 9.047129e-39 309 274
-0.012273333 0.69999999 -0.041729331 7.0328437e-39 310 274
-0.01101444 0.69800001 -0.041610107 9.153702e-39 311 274
-0.0097906133 0.69800001 -0.041610107 1.3654715e-38 312 274
-0.0085667865 0.69800001 -0.041610107 1.0889206e-38 313 274
-0.0073429602 0.69800001 -0.041610107 1.0702659e-38 314 274
-0.0061366665 0.69999999 -0.041729331 1.1163638e-38 315 274
-0.0049093333 0.69999999 -0.041729331 1.0615881e-38 316 274
-0.0036714801 0.69800001 -0.041610107 1.0338934e-38 317 274
-0.0024476533 0.69800001 -0.041610107 8.495023e-39 318 274
-0.0012273333 0.69999999 -0.041729331 7.3890342e-39 319 274
0 0.69999999 -0.041729331 6.8416127e-39 320 274
0.0012273333 0.69999999 -0.041729331 6.1962433e-39 321 274
0.0024546667 0.69999999 -0.041729331 8.9502432e-39 322 274
0.0036819996 0.69999999 -0.041729331 9.503417e-39 323 274
0.0049093333 0.69999999 -0.041729331 8.6783241e-39 324 274
0.0061454331 0.70099998 -0.041788943 9.6002818e-39 325 274
0.0073745195 0.70099998 -0.041788943 1.2082724e-38 326 274
0.0086036054 0.70099998 -0.041788943 1.1990528e-38 327 274
0.0098607466 0.70300001 -0.041908171 1.1993035e-38 328 274
0.011109119 0.704 -0.041967787 1.2361459e-38 329 274
0.012378532 0.70599997 -0.042087011 1.1809004e-38 330 274
0.013635674 0.70700002 -0.042146627 1.1624973e-38 331 274
0.01489632 0.708 -0.042206239 1.1990158e-38 332 274
0.016183265 0.70999998 -0.042325463 1.2358941e-38 333 274
0.01745268 0.71100003 -0.042385083 1.2729153e-38 334 274
0.018778199 0.71399999 -0.042563915 1.2913544e-38 335 274
0.020086186 0.71600002 -0.042683143 1.3740058e-38 336 274
0.021371379 0.71700001 -0.042742759 1.475421e-38 337 274
0.02262852 0.71700001 -0.042742759 1.7425713e-38 338 274
0.02388566 0.71700001 -0.042742759 2.1390125e-38 339 274
0.0251428 0.71700001 -0.042742759 2.2219868e-38 340 274
-0.040396802 0.72000003 -0.044183999 2.2864519e-38 288 275
-0.039134402 0.72000003 -0.044183999 2.1665976e-38 289 275
-0.037556399 0.71399999 -0.043815799 1.6321892e-38 290 275
-0.036253672 0.713 -0.043754432 1.2449675e-38 291 275
-0.035003547 0.713 -0.043754432 1.0616585e-38 292 275
-0.033753417 0.713 -0.043754432 1.3566485e-38 293 275
-0.032412119 0.71100003 -0.043631699 1.7246401e-38 294 275
-0.031121666 0.70999998 -0.043570329 1.7707739e-38 295 275
-0.02979264 0.708 -0.043447599 1.6879046e-38 296 275
-0.028510952 0.70700002 -0.043386232 1.641807e-38 297 275
-0.027232772 0.70599997 -0.043324865 1.5959963e-38 298 275
-0.02592128 0.704 -0.043202132 1.6052158e-38 299 275
-0.024686933 0.704 -0.043202132 1.595961e-38 300 275
-0.023419274 0.70300001 -0.043140765 1.595961e-38 301 275
-0.02218668 0.70300001 -0.043140765 1.559047e-38 302 275
-0.020954086 0.70300001 -0.043140765 1.4576678e-38 303 275
-0.019721493 0.70300001 -0.043140765 1.355963e-38 304 275
-0.018488899 0.70300001 -0.043140765 1.2268891e-38 305 275
-0.017256306 0.70300001 -0.043140765 1.1530259e-38 306 275
-0.015978126 0.70099998 -0.043018032 1.070014e-38 307 275
-0.014727999 0.69999999 -0.042956665 7.8532718e-39 308 275
-0.013500666 0.69999999 -0.042956665 7.0231524e-39 309 275
-0.012273333 0.69999999 -0.042956665 3.9039531e-39 310 275
-0.011045999 0.69999999 -0.042956665 7.2229957e-39 311 275
-0.0098186666 0.69999999 -0.042956665 1.3561788e-38 312 275
-0.0085913334 0.69999999 -0.042956665 1.1256537e-38 313 275
-0.0073639993 0.69999999 -0.042956665 9.0467324e-39 314 275
-0.0061366665 0.69999999 -0.042956665 9.3236781e-39 315 275
-0.0049093333 0.69999999 -0.042956665 1.0243866e-38 316 275
-0.0036819996 0.69999999 -0.042956665 1.0889235e-38 317 275
-0.0024546667 0.69999999 -0.042956665 8.8666796e-39 318 275
-0.0012273333 0.69999999 -0.042956665 7.1149612e-39 319 275
0 0.70099998 -0.043018032 6.3813436e-39 320 275
0.0012290865 0.70099998 -0.043018032 6.749766e-39 321 275
0.0024581731 0.70099998 -0.043018032 1.0429317e-38 322 275
0.0036872597 0.70099998 -0.043018032 1.1535663e-38 323 275
0.0049163462 0.70099998 -0.043018032 1.1624623e-38 324 275
0.0061629666 0.70300001 -0.043140765 1.1624623e-38 325 275
0.0073955595 0.70300001 -0.043140765 1.2728815e-38 326 275
0.0086281532 0.70300001 -0.043140765 1.2175641e-38 327 275
0.0098607466 0.70300001 -0.043140765 1.1993401e-38 328 275
0.011109119 0.704 -0.043202132 1.1993401e-38 329 275
0.012378532 0.70599997 -0.043324865 1.2083796e-38 330 275
0.013635674 0.70700002 -0.043386232 1.1807569e-38 331 275
0.01489632 0.708 -0.043447599 1.2083433e-38 332 275
0.01620606 0.71100003 -0.043631699 1.2267824e-38 333 275
0.017501773 0.713 -0.043754432 1.2636234e-38 334 275
0.018778199 0.71399999 -0.043815799 1.2912462e-38 335 275
0.020086186 0.71600002 -0.043938532 1.3187607e-38 336 275
0.021371379 0.71700001 -0.043999899 1.4293953e-38 337 275
0.02262852 0.71700001 -0.043999899 1.7058372e-38 338 275
0.02388566 0.71700001 -0.043999899 2.1022784e-38 339 275
0.0251428 0.71700001 -0.043999899 2.2219868e-38 340 275
-0.040396802 0.72000003 -0.045446403 2.2956712e-38 288 276
-0.038916986 0.71600002 -0.045193922 2.2126951e-38 289 276
-0.037556399 0.71399999 -0.045067675 1.7150205e-38 290 276
-0.036253672 0.713 -0.045004558 1.2632619e-38 291 276
-0.035003547 0.713 -0.045004558 3.4353981e-39 292 276
-0.033753417 0.713 -0.045004558 6.016517e-39 293 276
-0.032412119 0.71100003 -0.044878319 1.3932769e-38 294 276
-0.031165501 0.71100003 -0.044878319 1.5776681e-38 295 276
-0.02979264 0.708 -0.044688959 1.7338594e-38 296 276
-0.02855128 0.708 -0.044688959 1.7062367e-38 297 276
-0.027232772 0.70599997 -0.044562716 1.6236192e-38 298 276
-0.02592128 0.704 -0.044436477 1.6052161e-38 299 276
-0.024686933 0.704 -0.044436477 1.6235476e-38 300 276
-0.023419274 0.70300001 -0.04437336 1.6142922e-38 301 276
-0.02218668 0.70300001 -0.04437336 1.5406441e-38 302 276
-0.020954086 0.70300001 -0.04437336 1.4484126e-38 303 276
-0.019749546 0.704 -0.044436477 1.4389047e-38 304 276
-0.018488899 0.70300001 -0.04437336 1.4019904e-38 305 276
-0.017256306 0.70300001 -0.04437336 1.4294696e-38 306 276
-0.016023712 0.70300001 -0.04437336 1.4479087e-38 307 276
-0.014749039 0.70099998 -0.044247117 1.3285955e-38 308 276
-0.013519952 0.70099998 -0.044247117 1.2917172e-38 309 276
-0.012273333 0.69999999 -0.044183996 1.264238e-38 310 276
-0.011045999 0.69999999 -0.044183996 1.2919327e-38 311 276
-0.0098186666 0.69999999 -0.044183996 1.3746207e-38 312 276
-0.0085913334 0.69999999 -0.044183996 1.2640219e-38 313 276
-0.0073639993 0.69999999 -0.044183996 1.1810099e-38 314 276
-0.0061366665 0.69999999 -0.044183996 1.1441676e-38 315 276
-0.0049093333 0.69999999 -0.044183996 1.190158e-38 316 276
-0.0036819996 0.69999999 -0.044183996 1.2454752e-38 317 276
-0.0024546667 0.69999999 -0.044183996 1.217996e-38 318 276
-0.0012273333 0.69999999 -0.044183996 1.217996e-38 319 276
0 0.70300001 -0.04437336 1.2087399e-38 320 276
0.0012325933 0.70300001 -0.04437336 1.2548018e-38 321 276
0.0024651866 0.70300001 -0.04437336 1.2733487e-38 322 276
0.0036977797 0.70300001 -0.04437336 1.2733487e-38 323 276
0.0049303733 0.70300001 -0.04437336 1.3464933e-38 324 276
0.0061629666 0.70300001 -0.04437336 1.2819563e-38 325 276
0.0073955595 0.70300001 -0.04437336 1.2177794e-38 326 276
0.0086281532 0.70300001 -0.04437336 1.162462e-38 327 276
0.0098747732 0.704 -0.044436477 1.0889219e-38 328 276
0.011109119 0.704 -0.044436477 1.1442392e-38 329 276
0.012378532 0.70599997 -0.044562716 1.19916e-38 330 276
0.013654959 0.708 -0.044688959 1.1807569e-38 331 276
0.014938398 0.70999998 -0.044815198 1.2174544e-38 332 276
0.01620606 0.71100003 -0.044878319 1.2359294e-38 333 276
0.017526319 0.71399999 -0.045067675 1.3002861e-38 334 276
0.0188308 0.71600002 -0.045193922 1.3187254e-38 335 276
0.020086186 0.71600002 -0.045193922 1.2636234e-38 336 276
0.021371379 0.71700001 -0.045257039 1.3650027e-38 337 276
0.02262852 0.71700001 -0.045257039 1.668995e-38 338 276
0.02388566 0.71700001 -0.045257039 2.0746557e-38 339 276
0.0251428 0.71700001 -0.045257039 2.2312064e-38 340 276
-0.040340692 0.71899998 -0.046643924 2.3141103e-38 288 277
-0.038916986 0.71600002 -0.046449307 2.2403538e-38 289 277
-0.037556399 0.71399999 -0.046319555 1.8071072e-38 290 277
-0.036304519 0.71399999 -0.046319555 1.3460932e-38 291 277
-0.035052639 0.71399999 -0.046319555 2.9654306e-39 292 277
-0.033753417 0.713 -0.046254687 1.6746918e-39 293 277
-0.032503292 0.713 -0.046254687 3.8031408e-39 294 277
-0.031253166 0.713 -0.046254687 9.2430431e-39 295 277
-0.02979264 0.708 -0.045930319 1.6051107e-38 296 277
-0.02855128 0.708 -0.045930319 1.6604281e-38 297 277
-0.027232772 0.70599997 -0.04580057 1.6419867e-38 298 277
-0.02592128 0.704 -0.045670826 1.6327672e-38 299 277
-0.024686933 0.704 -0.045670826 1.6051805e-38 300 277
-0.023452586 0.704 -0.045670826 1.6051805e-38 301 277
-0.02218668 0.70300001 -0.04560595 1.5406086e-38 302 277
-0.020954086 0.70300001 -0.04560595 1.4484129e-38 303 277
-0.019749546 0.704 -0.045670826 1.3192314e-38 304 277
-0.018515198 0.704 -0.045670826 1.2454749e-38 305 277
-0.017280852 0.704 -0.045670826 1.2732062e-38 306 277
-0.016023712 0.70300001 -0.04560595 1.319304e-38 307 277
-0.014791119 0.70300001 -0.04560595 1.2641678e-38 308 277
-0.013558527 0.70300001 -0.04560595 1.2549481e-38 309 277
-0.012290866 0.70099998 -0.045476202 1.2366169e-38 310 277
-0.011061779 0.70099998 -0.045476202 1.2273973e-38 311 277
-0.0098326923 0.70099998 -0.045476202 1.1814434e-38 312 277
-0.0086036054 0.70099998 -0.045476202 1.2275773e-38 313 277
-0.0073745195 0.70099998 -0.045476202 1.1535687e-38 314 277
-0.0061454331 0.70099998 -0.045476202 1.0428979e-38 315 277
-0.0049163462 0.70099998 -0.045476202 1.1440973e-38 316 277
-0.0036872597 0.70099998 -0.045476202 1.1809397e-38 317 277
-0.0024546667 0.69999999 -0.04541133 1.1718633e-38 318 277
-0.0012273333 0.69999999 -0.04541133 1.2271807e-38 319 277
0 0.70300001 -0.04560595 1.245727e-38 320 277
0.0012325933 0.70300001 -0.04560595 1.2365074e-38 321 277
0.0024651866 0.70300001 -0.04560595 1.2548384e-38 322 277
0.0036977797 0.70300001 -0.04560595 1.2364353e-38 323 277
0.0049303733 0.70300001 -0.04560595 1.2915359e-38 324 277
0.0061717331 0.704 -0.045670826 1.2546575e-38 325 277
0.0074060797 0.704 -0.045670826 1.1719339e-38 326 277
0.0086404262 0.704 -0.045670826 1.107397e-38 327 277
0.0098747732 0.704 -0.045670826 1.0706625e-38 328 277
0.011140679 0.70599997 -0.04580057 1.1167603e-38 329 277
0.012396066 0.70700002 -0.045865446 1.1993033e-38 330 277
0.013654959 0.708 -0.045930319 1.1993033e-38 331 277
0.014959441 0.71100003 -0.046124939 1.2359291e-38 332 277
0.01620606 0.71100003 -0.046124939 1.2543683e-38 333 277
0.017526319 0.71399999 -0.046319555 1.3003942e-38 334 277
0.0188308 0.71600002 -0.046449307 1.3096137e-38 335 277
0.020086186 0.71600002 -0.046449307 1.2636231e-38 336 277
0.021371379 0.71700001 -0.046514176 1.3650383e-38 337 277
0.02262852 0.71700001 -0.046514176 1.6689947e-38 338 277
0.023952285 0.71899998 -0.046643924 2.0654359e-38 339 277
-0.040340692 0.71899998 -0.04790457 2.3141103e-38 288 278
-0.038916986 0.71600002 -0.047704693 2.2680125e-38 289 278
-0.037556399 0.71399999 -0.047571439 1.9084498e-38 290 278
-0.036304519 0.71399999 -0.047571439 1.484314e-38 291 278
-0.035052639 0.71399999 -0.047571439 7.194185e-39 292 278
-0.033800758 0.71399999 -0.047571439 2.7691535e-39 293 278
-0.032548878 0.71399999 -0.047571439 1.4122286e-41 294 278
-0.031296998 0.71399999 -0.047571439 3.7084313e-39 295 278
-0.029876797 0.70999998 -0.047304932 1.4300479e-38 296 278
-0.02855128 0.708 -0.047171678 1.6144392e-38 297 278
-0.027309919 0.708 -0.047171678 1.6696096e-38 298 278
-0.025994917 0.70599997 -0.047038425 1.6327672e-38 299 278
-0.024686933 0.704 -0.046905171 1.6235839e-38 300 278
-0.023452586 0.704 -0.046905171 1.6235839e-38 301 278
-0.022218239 0.704 -0.046905171 1.5406807e-38 302 278
-0.020983893 0.704 -0.046905171 1.4392657e-38 303 278
-0.019749546 0.704 -0.046905171 1.3101923e-38 304 278
-0.018515198 0.704 -0.046905171 1.3009728e-38 305 278
-0.017280852 0.704 -0.046905171 1.2732784e-38 306 278
-0.016046507 0.704 -0.046905171 1.2824979e-38 307 278
-0.014791119 0.70300001 -0.046838548 1.2456564e-38 308 278
-0.013558527 0.70300001 -0.046838548 1.2364368e-38 309 278
-0.012325933 0.70300001 -0.046838548 1.2364374e-38 310 278
-0.011061779 0.70099998 -0.046705291 1.2271819e-38 311 278
-0.0098326923 0.70099998 -0.046705291 1.1262698e-38 312 278
-0.0086036054 0.70099998 -0.046705291 1.20921e-38 313 278
-0.0073745195 0.70099998 -0.046705291 1.1629323e-38 314 278
-0.0061454331 0.70099998 -0.046705291 1.0062357e-38 315 278
-0.0049163462 0.70099998 -0.046705291 1.1165478e-38 316 278
-0.0036872597 0.70099998 -0.046705291 1.1073282e-38 317 278
-0.0024581731 0.70099998 -0.046705291 1.1073998e-38 318 278
-0.0012325933 0.70300001 -0.046838548 1.1535336e-38 319 278
0 0.70300001 -0.046838548 1.1721153e-38 320 278
0.0012343467 0.704 -0.046905171 1.1721153e-38 321 278
0.0024686933 0.704 -0.046905171 1.2272876e-38 322 278
0.0037030398 0.704 -0.046905171 1.2272876e-38 323 278
0.0049373866 0.704 -0.046905171 1.2823882e-38 324 278
0.0061717331 0.704 -0.046905171 1.2362904e-38 325 278
0.0074060797 0.704 -0.046905171 1.0521515e-38 326 278
0.0086404262 0.704 -0.046905171 1.1074689e-38 327 278
0.0099028256 0.70599997 -0.047038425 1.1718256e-38 328 278
0.011140679 0.70599997 -0.047038425 1.1902649e-38 329 278
0.0124136 0.708 -0.047171678 1.2453289e-38 330 278
0.013693533 0.70999998 -0.047304932 1.2268896e-38 331 278
0.014959441 0.71100003 -0.047371563 1.2452206e-38 332 278
0.016251646 0.713 -0.047504812 1.2636957e-38 333 278
0.017526319 0.71399999 -0.047571439 1.2637676e-38 334 278
0.0188308 0.71600002 -0.047704693 1.2637676e-38 335 278
0.020114239 0.71700001 -0.04777132 1.2726629e-38 336 278
0.021371379 0.71700001 -0.04777132 1.374078e-38 337 278
0.02262852 0.71700001 -0.04777132 1.6782498e-38 338 278
-0.038916986 0.71600002 -0.048960082 2.2679769e-38 289 279
-0.037556399 0.71399999 -0.048823316 2.0466354e-38 290 279
-0.036304519 0.71399999 -0.048823316 1.7423898e-38 291 279
-0.035052639 0.71399999 -0.048823316 1.1797114e-38 292 279
-0.033800758 0.71399999 -0.048823316 6.0813439e-39 293 279
-0.032548878 0.71399999 -0.048823316 1.0340882e-40 294 279
-0.031296998 0.71399999 -0.048823316 3.3302559e-39 295 279
-0.030003037 0.713 -0.048754938 1.1720055e-38 296 279
-0.028672259 0.71100003 -0.048618179 1.5223489e-38 297 279
-0.027309919 0.708 -0.048413038 1.6513502e-38 298 279
-0.02603174 0.70700002 -0.048344657 1.6145078e-38 299 279
-0.024757065 0.70599997 -0.048276275 1.5960331e-38 300 279
-0.023452586 0.704 -0.048139516 1.6052527e-38 301 279
-0.022218239 0.704 -0.048139516 1.5499003e-38 302 279
-0.020983893 0.704 -0.048139516 1.4577047e-38 303 279
-0.019749546 0.704 -0.048139516 1.3653658e-38 304 279
-0.018515198 0.704 -0.048139516 1.319304e-38 305 279
-0.017280852 0.704 -0.048139516 1.3008645e-38 306 279
-0.016046507 0.704 -0.048139516 1.3377429e-38 307 279
-0.014791119 0.70300001 -0.048071139 1.2642383e-38 308 279
-0.013558527 0.70300001 -0.048071139 1.2457992e-38 309 279
-0.012325933 0.70300001 -0.048071139 1.2274326e-38 310 279
-0.011061779 0.70099998 -0.047934376 1.2182131e-38 311 279
-0.0098326923 0.70099998 -0.047934376 1.2089576e-38 312 279
-0.0086036054 0.70099998 -0.047934376 1.2366522e-38 313 279
-0.0073745195 0.70099998 -0.047934376 1.1628604e-38 314 279
-0.0061454331 0.70099998 -0.047934376 9.7846912e-39 315 279
-0.0049163462 0.70099998 -0.047934376 9.8779757e-39 316 279
-0.0036872597 0.70099998 -0.047934376 1.0154921e-38 317 279
-0.0024651866 0.70300001 -0.048071139 1.0337515e-38 318 279
-0.0012325933 0.70300001 -0.048071139 1.0705938e-38 319 279
0 0.704 -0.048139516 1.0985753e-38 320 279
0.0012343467 0.704 -0.048139516 1.1538926e-38 321 279
0.0024686933 0.704 -0.048139516 1.2824611e-38 322 279
0.0037030398 0.704 -0.048139516 1.2455468e-38 323 279
0.0049514128 0.70599997 -0.048276275 1.1810452e-38 324 279
0.0061892662 0.70599997 -0.048276275 1.1810452e-38 325 279
0.0074271196 0.70599997 -0.048276275 1.1714663e-38 326 279
0.0086649731 0.70599997 -0.048276275 1.1622468e-38 327 279
0.0099028256 0.70599997 -0.048276275 1.1072168e-38 328 279
0.011156459 0.70700002 -0.048344657 1.1717537e-38 329 279
0.0124136 0.708 -0.048413038 1.2819916e-38 330 279
0.013693533 0.70999998 -0.048549797 1.2635884e-38 331 279
0.014959441 0.71100003 -0.048618179 1.2361812e-38 332 279
0.016251646 0.713 -0.048754938 1.2085225e-38 333 279
0.017575413 0.71600002 -0.048960082 1.2635881e-38 334 279
0.0188308 0.71600002 -0.048960082 1.2543685e-38 335 279
0.020114239 0.71700001 -0.04902846 1.281703e-38 336 279
0.021371379 0.71700001 -0.04902846 1.4107768e-38 337 279
0.02262852 0.71700001 -0.04902846 1.6873614e-38 338 279
-0.037556399 0.71399999 -0.050075196 2.0192658e-38 290 280
-0.036304519 0.71399999 -0.050075196 1.8256549e-38 291 280
-0.035150826 0.71600002 -0.050215468 1.521085e-38 292 280
-0.03389544 0.71600002 -0.050215468 1.014009e-38 293 280
-0.032548878 0.71399999 -0.050075196 3.878682e-39 294 280
-0.031296998 0.71399999 -0.050075196 3.878682e-39 295 280
-0.030003037 0.713 -0.050005067 1.1257225e-38 296 280
-0.028752912 0.713 -0.050005067 1.5590059e-38 297 280
-0.027387066 0.70999998 -0.049794663 1.6881193e-38 298 280
-0.026068559 0.708 -0.049654398 1.6420574e-38 299 280
-0.024757065 0.70599997 -0.04951413 1.6236192e-38 300 280
-0.023519212 0.70599997 -0.04951413 1.6052161e-38 301 280
-0.022218239 0.704 -0.049373865 1.5866342e-38 302 280
-0.020983893 0.704 -0.049373865 1.4852189e-38 303 280
-0.019805651 0.70599997 -0.04951413 1.3100489e-38 304 280
-0.018515198 0.704 -0.049373865 1.2178891e-38 305 280
-0.017280852 0.704 -0.049373865 1.2823181e-38 306 280
-0.016046507 0.704 -0.049373865 1.3745138e-38 307 280
-0.014812159 0.704 -0.049373865 1.3009725e-38 308 280
-0.013577812 0.704 -0.049373865 1.2917528e-38 309 280
-0.012343466 0.704 -0.049373865 1.2826051e-38 310 280
-0.01109334 0.70300001 -0.049303733 1.2641661e-38 311 280
-0.0098607466 0.70300001 -0.049303733 1.2640585e-38 312 280
-0.0086281532 0.70300001 -0.049303733 1.2179607e-38 313 280
-0.0073955595 0.70300001 -0.049303733 1.2179254e-38 314 280
-0.0061629666 0.70300001 -0.049303733 1.1533884e-38 315 280
-0.0049303733 0.70300001 -0.049303733 1.098179e-38 316 280
-0.0036977797 0.70300001 -0.049303733 1.1166181e-38 317 280
-0.0024651866 0.70300001 -0.049303733 1.1441692e-38 318 280
-0.0012343467 0.704 -0.049373865 1.1533887e-38 319 280
0 0.704 -0.049373865 1.1996298e-38 320 280
0.0012343467 0.704 -0.049373865 1.2456917e-38 321 280
0.0024757064 0.70599997 -0.04951413 1.2915727e-38 322 280
0.0037135598 0.70599997 -0.04951413 1.2362554e-38 323 280
0.0049514128 0.70599997 -0.04951413 1.0613713e-38 324 280
0.0061892662 0.70599997 -0.04951413 1.0613713e-38 325 280
0.0074271196 0.70599997 -0.04951413 1.1990181e-38 326 280
0.0086649731 0.70599997 -0.04951413 1.1805429e-38 327 280
0.0099168532 0.70700002 -0.049584266 1.0886705e-38 328 280
0.011156459 0.70700002 -0.049584266 1.1808301e-38 329 280
0.012448666 0.70999998 -0.049794663 1.2178866e-38 330 280
0.01371282 0.71100003 -0.049864799 1.2178866e-38 331 280
0.015001519 0.713 -0.050005067 1.2544404e-38 332 280
0.016274439 0.71399999 -0.050075196 1.2268177e-38 333 280
0.017575413 0.71600002 -0.050215468 1.2543332e-38 334 280
0.018857099 0.71700001 -0.0502856 1.2543332e-38 335 280
0.020114239 0.71700001 -0.0502856 1.2358572e-38 336 280
0.021371379 0.71700001 -0.0502856 1.3925538e-38 337 280
-0.037714198 0.71700001 -0.051542737 1.9549089e-38 290 281
-0.036406212 0.71600002 -0.051470853 1.7797372e-38 291 281
-0.035150826 0.71600002 -0.051470853 1.6505188e-38 292 281
-0.03389544 0.71600002 -0.051470853 1.4845307e-38 293 281
-0.032640055 0.71600002 -0.051470853 1.1436962e-38 294 281
-0.031296998 0.71399999 -0.05132708 1.0607202e-38 295 281
-0.030045118 0.71399999 -0.05132708 1.2549087e-38 296 281
-0.028752912 0.713 -0.051255193 1.5868489e-38 297 281
-0.027425639 0.71100003 -0.051111419 1.7248186e-38 298 281
-0.026068559 0.708 -0.050895758 1.6695012e-38 299 281
-0.024827199 0.708 -0.050895758 1.6235839e-38 300 281
-0.023552528 0.70700002 -0.050823875 1.6235839e-38 301 281
-0.022218239 0.704 -0.050608214 1.604966e-38 302 281
-0.020983893 0.704 -0.050608214 1.5312093e-38 303 281
-0.019805651 0.70599997 -0.050751984 1.2549115e-38 304 281
-0.018515198 0.704 -0.050608214 1.1627159e-38 305 281
-0.017280852 0.704 -0.050608214 1.1903746e-38 306 281
-0.016046507 0.704 -0.050608214 1.2549115e-38 307 281
-0.014812159 0.704 -0.050608214 1.337635e-38 308 281
-0.013577812 0.704 -0.050608214 1.337635e-38 309 281
-0.012343466 0.704 -0.050608214 1.2917172e-38 310 281
-0.011109119 0.704 -0.050608214 1.2824976e-38 311 281
-0.0098747732 0.704 -0.050608214 1.2637711e-38 312 281
-0.0086404262 0.704 -0.050608214 1.1531724e-38 313 281
-0.0074060797 0.704 -0.050608214 1.2546952e-38 314 281
-0.0061717331 0.704 -0.050608214 1.3837689e-38 315 281
-0.0049373866 0.704 -0.050608214 1.3560378e-38 316 281
-0.0037030398 0.704 -0.050608214 1.328379e-38 317 281
-0.0024686933 0.704 -0.050608214 1.282533e-38 318 281
-0.0012343467 0.704 -0.050608214 1.2364353e-38 319 281
0 0.704 -0.050608214 1.2914658e-38 320 281
0.0012343467 0.704 -0.050608214 1.2730267e-38 321 281
0.0024757064 0.70599997 -0.050751984 1.2730264e-38 322 281
0.0037135598 0.70599997 -0.050751984 1.3006851e-38 323 281
0.0049514128 0.70599997 -0.050751984 1.2822813e-38 324 281
0.0061892662 0.70599997 -0.050751984 1.1993051e-38 325 281
0.0074271196 0.70599997 -0.050751984 1.0984654e-38 326 281
0.0086649731 0.70599997 -0.050751984 1.190697e-38 327 281
0.0099168532 0.70700002 -0.050823875 1.2911764e-38 328 281
0.01117224 0.708 -0.050895758 1.2542982e-38 329 281
0.012448666 0.70999998 -0.051039528 1.2362541e-38 330 281
0.01371282 0.71100003 -0.051111419 1.2270345e-38 331 281
0.015022559 0.71399999 -0.05132708 1.2360739e-38 332 281
0.016320027 0.71600002 -0.051470853 1.2268543e-38 333 281
0.017599959 0.71700001 -0.051542737 1.2819196e-38 334 281
0.018857099 0.71700001 -0.051542737 1.2819196e-38 335 281
0.020114239 0.71700001 -0.051542737 1.2174177e-38 336 281
0.021430992 0.71899998 -0.05168651 1.3649308e-38 337 281
-0.036558751 0.71899998 -0.05294716 1.7798092e-38 291 282
-0.035199918 0.71700001 -0.052799881 1.6600271e-38 292 282
-0.033942781 0.71700001 -0.052799881 1.5678674e-38 293 282
-0.032640055 0.71600002 -0.052726239 1.3837658e-38 294 282
-0.031384666 0.71600002 -0.052726239 1.3837658e-38 295 282
-0.030045118 0.71399999 -0.052578956 1.5589751e-38 296 282
-0.028793238 0.71399999 -0.052578956 1.6696098e-38 297 282
-0.027425639 0.71100003 -0.052358042 1.6880124e-38 298 282
-0.026142199 0.70999998 -0.052284397 1.6603536e-38 299 282
-0.024827199 0.708 -0.052137118 1.6328035e-38 300 282
-0.023552528 0.70700002 -0.05206348 1.5959612e-38 301 282
-0.022281358 0.70599997 -0.051989835 1.5956744e-38 302 282
-0.021043506 0.70599997 -0.051989835 1.5587603e-38 303 282
-0.019805651 0.70599997 -0.051989835 1.2642031e-38 304 282
-0.018567799 0.70599997 -0.051989835 1.1812269e-38 305 282
-0.017329946 0.70599997 -0.051989835 1.2548036e-38 306 282
-0.016092092 0.70599997 -0.051989835 1.2732428e-38 307 282
-0.014812159 0.704 -0.051842559 1.3192317e-38 308 282
-0.013577812 0.704 -0.051842559 1.337635e-38 309 282
-0.012343466 0.704 -0.051842559 1.3193034e-38 310 282
-0.011109119 0.704 -0.051842559 1.3285589e-38 311 282
-0.0098747732 0.704 -0.051842559 1.2731336e-38 312 282
-0.0086404262 0.704 -0.051842559 1.2270358e-38 313 282
-0.0074060797 0.704 -0.051842559 1.2547668e-38 314 282
-0.0061717331 0.704 -0.051842559 1.3285233e-38 315 282
-0.0049373866 0.704 -0.051842559 1.3376703e-38 316 282
-0.0037030398 0.704 -0.051842559 1.3100474e-38 317 282
-0.0024686933 0.704 -0.051842559 1.3191225e-38 318 282
-0.0012343467 0.704 -0.051842559 1.2730247e-38 319 282
0 0.70599997 -0.051989835 1.2455475e-38 320 282
0.0012378532 0.70599997 -0.051989835 1.2178888e-38 321 282
0.0024757064 0.70599997 -0.051989835 1.2454399e-38 322 282
0.0037135598 0.70599997 -0.051989835 1.2546596e-38 323 282
0.0049514128 0.70599997 -0.051989835 1.2640938e-38 324 282
0.0061892662 0.70599997 -0.051989835 1.217996e-38 325 282
0.0074376399 0.70700002 -0.05206348 1.1628942e-38 326 282
0.008677247 0.70700002 -0.05206348 1.1997364e-38 327 282
0.0099168532 0.70700002 -0.05206348 1.2914278e-38 328 282
0.01117224 0.708 -0.052137118 1.2545856e-38 329 282
0.0124662 0.71100003 -0.052358042 1.2086317e-38 330 282
0.013751393 0.713 -0.052505318 1.1902284e-38 331 282
0.015022559 0.71399999 -0.052578956 1.2268187e-38 332 282
0.016320027 0.71600002 -0.052726239 1.2175992e-38 333 282
0.017599959 0.71700001 -0.052799881 1.2543688e-38 334 282
0.018909698 0.71899998 -0.05294716 1.2266743e-38 335 282
0.020170346 0.71899998 -0.05294716 1.1621007e-38 336 282
-0.035199918 0.71700001 -0.054057021 1.6693915e-38 292 283
-0.033942781 0.71700001 -0.054057021 1.6324773e-38 293 283
-0.032640055 0.71600002 -0.053981625 1.6234024e-38 294 283
-0.031384666 0.71600002 -0.053981625 1.7156341e-38 295 283
-0.030045118 0.71399999 -0.053830836 1.7433295e-38 296 283
-0.028752912 0.713 -0.053755447 1.6880121e-38 297 283
-0.027425639 0.71100003 -0.053604662 1.6512063e-38 298 283
-0.026142199 0.70999998 -0.053529263 1.6419867e-38 299 283
-0.024897331 0.70999998 -0.053529263 1.6235842e-38 300 283
-0.023585839 0.708 -0.053378478 1.5959615e-38 301 283
-0.022344479 0.708 -0.053378478 1.5956744e-38 302 283
-0.021103119 0.708 -0.053378478 1.5495406e-38 303 283
-0.019833706 0.70700002 -0.053303085 1.2735302e-38 304 283
-0.018567799 0.70599997 -0.053227689 1.1813347e-38 305 283
-0.017329946 0.70599997 -0.053227689 1.2732784e-38 306 283
-0.016092092 0.70599997 -0.053227689 1.2732784e-38 307 283
-0.014854239 0.70599997 -0.053227689 1.3283434e-38 308 283
-0.013616386 0.70599997 -0.053227689 1.3375629e-38 309 283
-0.012378532 0.70599997 -0.053227689 1.3285233e-38 310 283
-0.011140679 0.70599997 -0.053227689 1.3377429e-38 311 283
-0.0098747732 0.704 -0.053076904 1.3008645e-38 312 283
-0.0086404262 0.704 -0.053076904 1.3193037e-38 313 283
-0.0074060797 0.704 -0.053076904 1.3009728e-38 314 283
-0.0061717331 0.704 -0.053076904 1.2824976e-38 315 283
-0.0049514128 0.70599997 -0.053227689 1.3009725e-38 316 283
-0.0037135598 0.70599997 -0.053227689 1.3101921e-38 317 283
-0.0024757064 0.70599997 -0.053227689 1.2823176e-38 318 283
-0.0012378532 0.70599997 -0.053227689 1.1809383e-38 319 283
0 0.70599997 -0.053227689 1.2178891e-38 320 283
0.0012378532 0.70599997 -0.053227689 1.2086695e-38 321 283
0.0024757064 0.70599997 -0.053227689 1.2268933e-38 322 283
0.0037135598 0.70599997 -0.053227689 1.2084542e-38 323 283
0.0049514128 0.70599997 -0.053227689 1.1994141e-38 324 283
0.0061980332 0.70700002 -0.053303085 1.2178891e-38 325 283
0.0074376399 0.70700002 -0.053303085 1.1904452e-38 326 283
0.008677247 0.70700002 -0.053303085 1.1996648e-38 327 283
0.0099308798 0.708 -0.053378478 1.2455102e-38 328 283
0.011203799 0.70999998 -0.053529263 1.2270711e-38 329 283
0.0124662 0.71100003 -0.053604662 1.2268912e-38 330 283
0.013751393 0.713 -0.053755447 1.2084881e-38 331 283
0.015022559 0.71399999 -0.053830836 1.1992326e-38 332 283
0.016320027 0.71600002 -0.053981625 1.1807935e-38 333 283
0.017599959 0.71700001 -0.054057021 1.2175629e-38 334 283
0.018935999 0.72000003 -0.054283202 1.1806486e-38 335 283
-0.033942781 0.71700001 -0.055314157 1.6508804e-38 293 284
-0.032640055 0.71600002 -0.055237014 1.6510972e-38 294 284
-0.031384666 0.71600002 -0.055237014 1.7063787e-38 295 284
-0.030045118 0.71399999 -0.05508272 1.7156707e-38 296 284
-0.028752912 0.713 -0.055005573 1.6787926e-38 297 284
-0.027425639 0.71100003 -0.054851279 1.6787572e-38 298 284
-0.026142199 0.70999998 -0.054774132 1.6787572e-38 299 284
-0.024897331 0.70999998 -0.054774132 1.641987e-38 300 284
-0.023585839 0.708 -0.054619838 1.641987e-38 301 284
-0.022344479 0.708 -0.054619838 1.5682671e-38 302 284
-0.021103119 0.708 -0.054619838 1.4944747e-38 303 284
-0.01986176 0.708 -0.054619838 1.3287031e-38 304 284
-0.018594101 0.70700002 -0.054542694 1.245727e-38 305 284
-0.017354494 0.70700002 -0.054542694 1.3100843e-38 306 284
-0.016092092 0.70599997 -0.054465543 1.3100843e-38 307 284
-0.014854239 0.70599997 -0.054465543 1.3283436e-38 308 284
-0.013616386 0.70599997 -0.054465543 1.3375632e-38 309 284
-0.012378532 0.70599997 -0.054465543 1.3285236e-38 310 284
-0.011140679 0.70599997 -0.054465543 1.3285236e-38 311 284
-0.0099028256 0.70599997 -0.054465543 1.310084e-38 312 284
-0.0086649731 0.70599997 -0.054465543 1.3193037e-38 313 284
-0.0074271196 0.70599997 -0.054465543 1.3285236e-38 314 284
-0.0061892662 0.70599997 -0.054465543 1.3100843e-38 315 284
-0.0049514128 0.70599997 -0.054465543 1.3009725e-38 316 284
-0.0037135598 0.70599997 -0.054465543 1.3009725e-38 317 284
-0.0024757064 0.70599997 -0.054465543 1.2179963e-38 318 284
-0.0012378532 0.70599997 -0.054465543 1.1718986e-38 319 284
0 0.70599997 -0.054465543 1.2087411e-38 320 284
0.0012378532 0.70599997 -0.054465543 1.1995216e-38 321 284
0.0024757064 0.70599997 -0.054465543 1.2177812e-38 322 284
0.0037135598 0.70599997 -0.054465543 1.2177812e-38 323 284
0.0049584266 0.70700002 -0.054542694 1.23622e-38 324 284
0.0061980332 0.70700002 -0.054542694 1.2270005e-38 325 284
0.0074376399 0.70700002 -0.054542694 1.2361837e-38 326 284
0.008689519 0.708 -0.054619838 1.2545869e-38 327 284
0.0099589331 0.70999998 -0.054774132 1.2729894e-38 328 284
0.011203799 0.70999998 -0.054774132 1.2729894e-38 329 284
0.0124662 0.71100003 -0.054851279 1.2084878e-38 330 284
0.013751393 0.713 -0.055005573 1.1715737e-38 331 284
0.01506464 0.71600002 -0.055237014 1.1715016e-38 332 284
0.016342819 0.71700001 -0.055314157 1.1622821e-38 333 284
0.017649053 0.71899998 -0.055468451 1.1991598e-38 334 284
-0.032640055 0.71600002 -0.056492399 1.6602085e-38 294 285
-0.031384666 0.71600002 -0.056492399 1.6878672e-38 295 285
-0.030045118 0.71399999 -0.0563346 1.6512416e-38 296 285
-0.028793238 0.71399999 -0.0563346 1.6696449e-38 297 285
-0.027425639 0.71100003 -0.056097899 1.7063439e-38 298 285
-0.026179021 0.71100003 -0.056097899 1.6879046e-38 299 285
-0.024897331 0.70999998 -0.056018997 1.669538e-38 300 285
-0.023652466 0.70999998 -0.056018997 1.6879771e-38 301 285
-0.022344479 0.708 -0.055861197 1.6050376e-38 302 285
-0.021103119 0.708 -0.055861197 1.5036583e-38 303 285
-0.019917866 0.70999998 -0.056018997 1.3194835e-38 304 285
-0.0186204 0.708 -0.055861197 1.2549466e-38 305 285
-0.017379038 0.708 -0.055861197 1.3468548e-38 306 285
-0.016114887 0.70700002 -0.055782299 1.3468548e-38 307 285
-0.014854239 0.70599997 -0.055703394 1.319232e-38 308 285
-0.013616386 0.70599997 -0.055703394 1.319232e-38 309 285
-0.012378532 0.70599997 -0.055703394 1.2917172e-38 310 285
-0.011140679 0.70599997 -0.055703394 1.2824976e-38 311 285
-0.0099028256 0.70599997 -0.055703394 1.2181409e-38 312 285
-0.0086649731 0.70599997 -0.055703394 1.2273605e-38 313 285
-0.0074271196 0.70599997 -0.055703394 1.2549118e-38 314 285
-0.0061892662 0.70599997 -0.055703394 1.2364368e-38 315 285
-0.0049514128 0.70599997 -0.055703394 1.2272529e-38 316 285
-0.0037135598 0.70599997 -0.055703394 1.2272529e-38 317 285
-0.0024757064 0.70599997 -0.055703394 1.2455471e-38 318 285
-0.0012378532 0.70599997 -0.055703394 1.2455471e-38 319 285
0 0.70599997 -0.055703394 1.2089561e-38 320 285
0.0012396066 0.70700002 -0.055782299 1.1997364e-38 321 285
0.0024792133 0.70700002 -0.055782299 1.2087765e-38 322 285
0.0037188199 0.70700002 -0.055782299 1.2087765e-38 323 285
0.0049584266 0.70700002 -0.055782299 1.2269286e-38 324 285
0.0061980332 0.70700002 -0.055782299 1.2361482e-38 325 285
0.0074481601 0.708 -0.055861197 1.2177812e-38 326 285
0.008689519 0.708 -0.055861197 1.2177812e-38 327 285
0.0099589331 0.70999998 -0.056018997 1.273061e-38 328 285
0.01121958 0.71100003 -0.056097899 1.2823166e-38 329 285
0.0124662 0.71100003 -0.056097899 1.1993035e-38 330 285
0.01377068 0.71399999 -0.0563346 1.0609742e-38 331 285
0.01506464 0.71600002 -0.056492399 1.0977454e-38 332 285
0.016342819 0.71700001 -0.056571297 1.106965e-38 333 285
-0.030045118 0.71399999 -0.057586476 1.6512416e-38 296 286
-0.028793238 0.71399999 -0.057586476 1.6788644e-38 297 286
-0.027502786 0.713 -0.057505824 1.6693931e-38 298 286
-0.026179021 0.71100003 -0.057344519 1.4481596e-38 299 286
-0.024932399 0.71100003 -0.057344519 1.512805e-38 300 286
-0.023652466 0.70999998 -0.057263866 1.6234757e-38 301 286
-0.022344479 0.708 -0.057102561 1.5776666e-38 302 286
-0.021103119 0.708 -0.057102561 1.5131296e-38 303 286
-0.019917866 0.70999998 -0.057263866 1.3101921e-38 304 286
-0.0186204 0.708 -0.057102561 1.2640582e-38 305 286
-0.017379038 0.708 -0.057102561 1.3743693e-38 306 286
-0.01613768 0.708 -0.057102561 1.3928084e-38 307 286
-0.01487528 0.70700002 -0.057021905 1.3469627e-38 308 286
-0.013635674 0.70700002 -0.057021905 1.3100843e-38 309 286
-0.012396066 0.70700002 -0.057021905 1.2457283e-38 310 286
-0.011156459 0.70700002 -0.057021905 1.1996665e-38 311 286
-0.0099028256 0.70599997 -0.056941248 1.162897e-38 312 286
-0.0086649731 0.70599997 -0.056941248 1.1721167e-38 313 286
-0.0074376399 0.70700002 -0.057021905 1.1625734e-38 314 286
-0.0061980332 0.70700002 -0.057021905 1.1901961e-38 315 286
-0.0049584266 0.70700002 -0.057021905 1.0620563e-38 316 286
-0.0037188199 0.70700002 -0.057021905 1.0712759e-38 317 286
-0.0024792133 0.70700002 -0.057021905 1.2089932e-38 318 286
-0.0012396066 0.70700002 -0.057021905 1.2089932e-38 319 286
0 0.70700002 -0.057021905 1.2182478e-38 320 286
0.0012396066 0.70700002 -0.057021905 1.2090283e-38 321 286
0.0024792133 0.70700002 -0.057021905 1.2547304e-38 322 286
0.0037188199 0.70700002 -0.057021905 1.2085967e-38 323 286
0.0049584266 0.70700002 -0.057021905 1.189978e-38 324 286
0.0061980332 0.70700002 -0.057021905 1.1991976e-38 325 286
0.0074481601 0.708 -0.057102561 1.1715033e-38 326 286
0.0087140659 0.70999998 -0.057263866 1.1622837e-38 327 286
0.0099589331 0.70999998 -0.057263866 1.0705906e-38 328 286
0.01121958 0.71100003 -0.057344519 1.1351276e-38 329 286
0.012501267 0.713 -0.057505824 1.1533496e-38 330 286
-0.026179021 0.71100003 -0.058591139 1.3282327e-38 299 287
-0.024932399 0.71100003 -0.058591139 1.364644e-38 300 287
-0.023652466 0.70999998 -0.058508728 1.5951331e-38 301 287
-0.022407599 0.70999998 -0.058508728 1.6326966e-38 302 287
-0.021162732 0.70999998 -0.058508728 1.5681596e-38 303 287
-0.019917866 0.70999998 -0.058508728 1.0895708e-38 304 287
-0.018672999 0.70999998 -0.058508728 1.0065589e-38 305 287
-0.017428132 0.70999998 -0.058508728 1.18112e-38 306 287
-0.016183265 0.70999998 -0.058508728 1.1995591e-38 307 287
-0.01489632 0.708 -0.058343921 1.2549837e-38 308 287
-0.013654959 0.708 -0.058343921 1.2457283e-38 309 287
-0.0124136 0.708 -0.058343921 1.2825346e-38 310 287
-0.011156459 0.70700002 -0.05826151 1.2917542e-38 311 287
-0.0099168532 0.70700002 -0.05826151 1.1355624e-38 312 287
-0.008677247 0.70700002 -0.05826151 1.1263428e-38 313 287
-0.0074376399 0.70700002 -0.05826151 1.1723683e-38 314 287
-0.0061980332 0.70700002 -0.05826151 1.1723683e-38 315 287
-0.0049654399 0.708 -0.058343921 1.2274677e-38 316 287
-0.00372408 0.708 -0.058343921 1.2735296e-38 317 287
-0.00248272 0.708 -0.058343921 1.3468535e-38 318 287
-0.00124136 0.708 -0.058343921 1.2915362e-38 319 287
0 0.708 -0.058343921 1.1812622e-38 320 287
0.0012396066 0.70700002 -0.05826151 1.1351646e-38 321 287
0.0024792133 0.70700002 -0.05826151 1.1166181e-38 322 287
0.0037188199 0.70700002 -0.05826151 1.1166181e-38 323 287
0.0049584266 0.70700002 -0.05826151 1.134913e-38 324 287
0.0062067998 0.708 -0.058343921 1.0888152e-38 325 287
0.0074481601 0.708 -0.058343921 1.0519364e-38 326 287
0.0087140659 0.70999998 -0.058508728 1.0334971e-38 327 287
0.0099729598 0.71100003 -0.058591139 1.0061257e-38 328 287
-0.013654959 0.708 -0.059585281 9.5127889e-39 309 288
-0.0124136 0.708 -0.059585281 1.1902314e-38 310 288
-0.01117224 0.708 -0.059585281 1.2271457e-38 311 288
