# .PCD v.7 - Point Cloud Data file format
FIELDS x y z rgb imX imY
SIZE 4 4 4 4 4 4
TYPE F F F F F F
COUNT 1 1 1 1 1 1
WIDTH 833
HEIGHT 1
VIEWPOINT 0 0 0 1 0 0 0
POINTS 833
DATA ascii
-0.0048251734 0.68800002 -0.0180944 1.7664698e-39 316 255
-0.0036188802 0.68800002 -0.0180944 3.0572087e-39 317 255
-0.0024125867 0.68800002 -0.0180944 4.9919044e-39 318 255
-0.0012062934 0.68800002 -0.0180944 6.8358156e-39 319 255
0 0.68800002 -0.0180944 8.7690567e-39 320 255
0.0012062934 0.68800002 -0.0180944 1.0151991e-38 321 255
0.0024125867 0.68800002 -0.0180944 1.1624596e-38 322 255
0.0036293997 0.69 -0.018146999 1.199338e-38 323 255
0.0048391996 0.69 -0.018146999 1.2638749e-38 324 255
0.0060489997 0.69 -0.018146999 1.3376673e-38 325 255
0.0072903596 0.69300002 -0.018225901 1.4387598e-38 326 255
0.0085176928 0.69400001 -0.0182522 1.4110652e-38 327 255
0.0097345067 0.69400001 -0.0182522 1.383479e-38 328 255
0.01095132 0.69400001 -0.0182522 1.3926987e-38 329 255
0.0122032 0.69599998 -0.018304799 1.3559279e-38 330 255
0.013423519 0.69599998 -0.018304799 1.3282692e-38 331 255
0.01466488 0.69700003 -0.018331099 1.2914266e-38 332 255
0.015909746 0.69800001 -0.0183574 1.2914266e-38 333 255
0.017133573 0.69800001 -0.0183574 1.2911746e-38 334 255
0.018409999 0.69999999 -0.018409999 1.2266377e-38 335 255
0.019721493 0.70300001 -0.018488899 1.208126e-38 336 255
0.020954086 0.70300001 -0.018488899 1.2542238e-38 337 255
0.02218668 0.70300001 -0.018488899 1.3095039e-38 338 255
-0.035745207 0.70300001 -0.019721493 1.3917227e-38 291 256
-0.034414422 0.70099998 -0.019665385 1.3547018e-38 292 256
-0.033137999 0.69999999 -0.019637333 1.2348476e-38 293 256
-0.031910665 0.69999999 -0.019637333 1.4089413e-38 294 256
-0.030595668 0.69800001 -0.019581227 1.5380152e-38 295 256
-0.029371841 0.69800001 -0.019581227 1.5846537e-38 296 256
-0.028107686 0.69700003 -0.019553173 1.7782646e-38 297 256
-0.026885614 0.69700003 -0.019553173 1.6320838e-38 298 256
-0.025626717 0.69599998 -0.019525118 1.7058404e-38 299 256
-0.024336265 0.69400001 -0.019469013 1.6325521e-38 300 256
-0.02308614 0.69300002 -0.01944096 1.6049293e-38 301 256
-0.021807959 0.69099998 -0.019384852 1.5865618e-38 302 256
-0.020596405 0.69099998 -0.019384852 1.5865618e-38 303 256
-0.01944096 0.69300002 -0.01944096 1.5771979e-38 304 256
-0.0181733 0.69099998 -0.019384852 1.531064e-38 305 256
-0.016961746 0.69099998 -0.019384852 1.4206451e-38 306 256
-0.015750192 0.69099998 -0.019384852 1.3376689e-38 307 256
-0.014517599 0.69 -0.019356798 1.2181029e-38 308 256
-0.0133078 0.69 -0.019356798 1.1812607e-38 309 256
-0.012062933 0.68800002 -0.019300694 1.1627857e-38 310 256
-0.010856641 0.68800002 -0.019300694 1.0982488e-38 311 256
-0.0096503468 0.68800002 -0.019300694 1.006413e-38 312 256
-0.0084440531 0.68800002 -0.019300694 9.8793798e-39 313 256
-0.0072377604 0.68800002 -0.019300694 9.6031516e-39 314 256
-0.0060314666 0.68800002 -0.019300694 1.0156325e-38 315 256
-0.0048251734 0.68800002 -0.019300694 1.0708778e-38 316 256
-0.0036188802 0.68800002 -0.019300694 1.1077559e-38 317 256
-0.0024125867 0.68800002 -0.019300694 1.218031e-38 318 256
-0.0012062934 0.68800002 -0.019300694 1.2641289e-38 319 256
0 0.68800002 -0.019300694 1.2916078e-38 320 256
0.0012062934 0.68800002 -0.019300694 1.2731686e-38 321 256
0.0024195998 0.69 -0.019356798 1.3191223e-38 322 256
0.0036293997 0.69 -0.019356798 1.3744396e-38 323 256
0.0048391996 0.69 -0.019356798 1.4204649e-38 324 256
0.0060577663 0.69099998 -0.019384852 1.4020257e-38 325 256
0.0072903596 0.69300002 -0.01944096 1.4662034e-38 326 256
0.0085176928 0.69400001 -0.019469013 1.4016664e-38 327 256
0.0097345067 0.69400001 -0.019469013 1.2819196e-38 328 256
0.010982879 0.69599998 -0.019525118 1.2081631e-38 329 256
0.0122032 0.69599998 -0.019525118 1.1622808e-38 330 256
0.013423519 0.69599998 -0.019525118 1.1991232e-38 331 256
0.01466488 0.69700003 -0.019553173 1.1717888e-38 332 256
0.015909746 0.69800001 -0.019581227 1.1717888e-38 333 256
0.017182667 0.69999999 -0.019637333 1.245149e-38 334 256
0.018436298 0.70099998 -0.019665385 1.180612e-38 335 256
0.019721493 0.70300001 -0.019721493 1.1897587e-38 336 256
0.020983893 0.704 -0.019749546 1.2451121e-38 337 256
0.022218239 0.704 -0.019749546 1.3463103e-38 338 256
0.023452586 0.704 -0.019749546 1.8257275e-38 339 256
-0.037030395 0.704 -0.020983893 1.7974188e-38 290 257
-0.035745207 0.70300001 -0.020954086 1.3548439e-38 291 257
-0.034414422 0.70099998 -0.020894472 1.4001141e-38 292 257
-0.033137999 0.69999999 -0.020864666 1.2894793e-38 293 257
-0.031910665 0.69999999 -0.020864666 1.3434297e-38 294 257
-0.030595668 0.69800001 -0.020805053 1.2419785e-38 295 257
-0.029371841 0.69800001 -0.020805053 1.2966868e-38 296 257
-0.028107686 0.69700003 -0.020775247 1.6470302e-38 297 257
-0.026885614 0.69700003 -0.020775247 1.5112588e-38 298 257
-0.025626717 0.69599998 -0.020745439 1.7509674e-38 299 257
-0.024336265 0.69400001 -0.020685827 1.6782186e-38 300 257
-0.02308614 0.69300002 -0.020656019 1.668999e-38 301 257
-0.021871079 0.69300002 -0.020656019 1.5497558e-38 302 257
-0.020656019 0.69300002 -0.020656019 1.5220973e-38 303 257
-0.01944096 0.69300002 -0.020656019 1.5405362e-38 304 257
-0.0181733 0.69099998 -0.020596405 1.5497558e-38 305 257
-0.016961746 0.69099998 -0.020596405 1.475999e-38 306 257
-0.015750192 0.69099998 -0.020596405 1.475999e-38 307 257
-0.014517599 0.69 -0.020566599 1.4575959e-38 308 257
-0.0133078 0.69 -0.020566599 1.4852186e-38 309 257
-0.012062933 0.68800002 -0.020506985 1.5401767e-38 310 257
-0.010856641 0.68800002 -0.020506985 1.5401767e-38 311 257
-0.0096503468 0.68800002 -0.020506985 1.4943312e-38 312 257
-0.0084440531 0.68800002 -0.020506985 1.5219539e-38 313 257
-0.0072377604 0.68800002 -0.020506985 1.5769832e-38 314 257
-0.0060314666 0.68800002 -0.020506985 1.5585082e-38 315 257
-0.0048251734 0.68800002 -0.020506985 1.4851114e-38 316 257
-0.0036188802 0.68800002 -0.020506985 1.4758918e-38 317 257
-0.0024195998 0.69 -0.020566599 1.5034063e-38 318 257
-0.0012097999 0.69 -0.020566599 1.5034063e-38 319 257
0 0.69 -0.020566599 1.4849665e-38 320 257
0.0012097999 0.69 -0.020566599 1.4481243e-38 321 257
0.0024195998 0.69 -0.020566599 1.4389047e-38 322 257
0.0036293997 0.69 -0.020566599 1.365148e-38 323 257
0.0048462129 0.69099998 -0.020596405 1.0706262e-38 324 257
0.0060577663 0.69099998 -0.020596405 1.1074686e-38 325 257
0.0072903596 0.69300002 -0.020656019 1.3188704e-38 326 257
0.0085176928 0.69400001 -0.020685827 1.2635531e-38 327 257
0.0097345067 0.69400001 -0.020685827 1.0520051e-38 328 257
0.010982879 0.69599998 -0.020745439 9.1371162e-39 329 257
0.0122032 0.69599998 -0.020745439 9.2267951e-39 330 257
0.013442807 0.69700003 -0.020775247 9.7799675e-39 331 257
0.01466488 0.69700003 -0.020775247 1.0888127e-38 332 257
0.015909746 0.69800001 -0.020805053 1.1072518e-38 333 257
0.017182667 0.69999999 -0.020864666 1.1990882e-38 334 257
0.018436298 0.70099998 -0.020894472 1.1622458e-38 335 257
0.019721493 0.70300001 -0.020954086 1.1713559e-38 336 257
0.020983893 0.704 -0.020983893 1.2266374e-38 337 257
0.022281358 0.70599997 -0.021043506 1.3556017e-38 338 257
0.023519212 0.70599997 -0.021043506 1.8442744e-38 339 257
-0.038264744 0.704 -0.022218239 2.2126598e-38 289 258
-0.037030395 0.704 -0.022218239 1.8619922e-38 290 258
-0.035796054 0.704 -0.022218239 1.4655508e-38 291 258
-0.034512613 0.70300001 -0.02218668 1.5102091e-38 292 258
-0.033280019 0.70300001 -0.02218668 1.5102091e-38 293 258
-0.031910665 0.69999999 -0.022091998 1.5001601e-38 294 258
-0.030595668 0.69800001 -0.02202888 1.2604514e-38 295 258
-0.029371841 0.69800001 -0.02202888 1.3596393e-38 296 258
-0.028148014 0.69800001 -0.02202888 1.4057731e-38 297 258
-0.026885614 0.69700003 -0.02199732 1.3609038e-38 298 258
-0.025626717 0.69599998 -0.021965759 1.5821374e-38 299 258
-0.0244064 0.69599998 -0.021965759 1.4562298e-38 300 258
-0.023119451 0.69400001 -0.021902639 1.659096e-38 301 258
-0.021871079 0.69300002 -0.021871079 1.5679435e-38 302 258
-0.020656019 0.69300002 -0.021871079 1.5771631e-38 303 258
-0.01944096 0.69300002 -0.021871079 1.4853633e-38 304 258
-0.018225901 0.69300002 -0.021871079 1.4853633e-38 305 258
-0.016961746 0.69099998 -0.021807959 1.365581e-38 306 258
-0.015750192 0.69099998 -0.021807959 1.2642017e-38 307 258
-0.014538639 0.69099998 -0.021807959 1.1430886e-38 308 258
-0.013327086 0.69099998 -0.021807959 1.2445398e-38 309 258
-0.012097999 0.69 -0.021776399 1.2639863e-38 310 258
-0.010888199 0.69 -0.021776399 1.3193037e-38 311 258
-0.0096783992 0.69 -0.021776399 1.1814419e-38 312 258
-0.0084686 0.69 -0.021776399 1.1906614e-38 313 258
-0.0072587994 0.69 -0.021776399 1.4291472e-38 314 258
-0.0060314666 0.68800002 -0.021713281 1.3646102e-38 315 258
-0.0048251734 0.68800002 -0.021713281 1.1717553e-38 316 258
-0.0036188802 0.68800002 -0.021713281 1.180975e-38 317 258
-0.0024125867 0.68800002 -0.021713281 1.2454755e-38 318 258
-0.0012062934 0.68800002 -0.021713281 1.2454755e-38 319 258
0 0.68800002 -0.021713281 1.2820648e-38 320 258
0.0012097999 0.69 -0.021776399 1.2912843e-38 321 258
0.0024195998 0.69 -0.021776399 1.3464215e-38 322 258
0.0036346598 0.69099998 -0.021807959 1.1528107e-38 323 258
0.0048462129 0.69099998 -0.021807959 3.5312105e-39 324 258
0.0060753003 0.69300002 -0.021871079 3.4386561e-39 325 258
0.0072903596 0.69300002 -0.021871079 6.1951769e-39 326 258
0.0085176928 0.69400001 -0.021902639 6.2873726e-39 327 258
0.0097625591 0.69599998 -0.021965759 6.9373817e-39 328 258
0.010982879 0.69599998 -0.021965759 7.8596981e-39 329 258
0.012220734 0.69700003 -0.02199732 1.1068552e-38 330 258
0.013442807 0.69700003 -0.02199732 1.1160748e-38 331 258
0.01468592 0.69800001 -0.02202888 1.1623174e-38 332 258
0.015955333 0.69999999 -0.022091998 1.1623174e-38 333 258
0.017182667 0.69999999 -0.022091998 1.1805767e-38 334 258
0.018436298 0.70099998 -0.022123558 1.1805767e-38 335 258
0.019749546 0.704 -0.022218239 1.1989067e-38 336 258
0.020983893 0.704 -0.022218239 1.2542241e-38 337 258
0.022281358 0.70599997 -0.022281358 1.3005361e-38 338 258
0.023519212 0.70599997 -0.022281358 1.8260512e-38 339 258
-0.037135597 0.70599997 -0.023519212 1.8989075e-38 290 259
-0.035796054 0.704 -0.023452586 1.6131011e-38 291 259
-0.034561705 0.704 -0.023452586 1.6302802e-38 292 259
-0.033280019 0.70300001 -0.023419274 1.6302802e-38 293 259
-0.032047424 0.70300001 -0.023419274 1.5185992e-38 294 259
-0.030683333 0.69999999 -0.023319334 1.269671e-38 295 259
-0.029371841 0.69800001 -0.023252707 1.4243522e-38 296 259
-0.028148014 0.69800001 -0.023252707 1.3321926e-38 297 259
-0.026885614 0.69700003 -0.023219392 1.3041038e-38 298 259
-0.025626717 0.69599998 -0.023186078 1.2673332e-38 299 259
-0.0244064 0.69599998 -0.023186078 1.1867004e-38 300 259
-0.023119451 0.69400001 -0.023119451 1.7122155e-38 301 259
-0.021871079 0.69300002 -0.02308614 1.4753529e-38 302 259
-0.020656019 0.69300002 -0.02308614 1.6320855e-38 303 259
-0.01944096 0.69300002 -0.02308614 1.5221344e-38 304 259
-0.018225901 0.69300002 -0.02308614 1.5036593e-38 305 259
-0.01701084 0.69300002 -0.02308614 1.3838404e-38 306 259
-0.015795778 0.69300002 -0.02308614 1.199485e-38 307 259
-0.014538639 0.69099998 -0.023019511 4.2694734e-39 308 259
-0.013327086 0.69099998 -0.023019511 5.7449622e-39 309 259
-0.012115533 0.69099998 -0.023019511 9.5134741e-39 310 259
-0.010888199 0.69 -0.022986198 1.043543e-38 311 259
-0.0096783992 0.69 -0.022986198 9.1428965e-39 312 259
-0.0084686 0.69 -0.022986198 9.6038747e-39 313 259
-0.0072587994 0.69 -0.022986198 1.1715383e-38 314 259
-0.0060314666 0.68800002 -0.022919573 9.8718296e-39 315 259
-0.0048251734 0.68800002 -0.022919573 7.11282e-39 316 259
-0.0036188802 0.68800002 -0.022919573 7.4812424e-39 317 259
-0.0024125867 0.68800002 -0.022919573 8.9538614e-39 318 259
-0.0012062934 0.68800002 -0.022919573 1.005985e-38 319 259
0 0.68800002 -0.022919573 9.5992028e-39 320 259
0.0012097999 0.69 -0.022986198 1.006054e-38 321 259
0.0024195998 0.69 -0.022986198 1.2544054e-38 322 259
0.0036346598 0.69099998 -0.023019511 1.1437708e-38 323 259
0.0048462129 0.69099998 -0.023019511 5.3693623e-39 324 259
0.0060753003 0.69300002 -0.02308614 4.5396017e-39 325 259
0.0072903596 0.69300002 -0.02308614 4.8144033e-39 326 259
0.0085176928 0.69400001 -0.023119451 6.0129465e-39 327 259
0.0097625591 0.69599998 -0.023186078 9.1407428e-39 328 259
0.01099866 0.69700003 -0.023219392 1.0155253e-38 329 259
0.012220734 0.69700003 -0.023219392 1.1991603e-38 330 259
0.013442807 0.69700003 -0.023219392 1.2175994e-38 331 259
0.01468592 0.69800001 -0.023252707 1.1900484e-38 332 259
0.015955333 0.69999999 -0.023319334 1.1808288e-38 333 259
0.017207211 0.70099998 -0.023352645 1.1988714e-38 334 259
0.018488899 0.70300001 -0.023419274 1.2173105e-38 335 259
0.019749546 0.704 -0.023452586 1.2173814e-38 336 259
0.020983893 0.704 -0.023452586 1.2542238e-38 337 259
0.022281358 0.70599997 -0.023519212 1.3097913e-38 338 259
0.023519212 0.70599997 -0.023519212 1.8445259e-38 339 259
0.024757065 0.70599997 -0.023519212 2.185109e-38 340 259
-0.038753927 0.713 -0.025002534 2.1943286e-38 289 260
-0.037345998 0.70999998 -0.024897331 1.8896514e-38 290 260
-0.035897743 0.70599997 -0.024757065 1.6591263e-38 291 260
-0.034561705 0.704 -0.024686933 1.6674461e-38 292 260
-0.03332736 0.704 -0.024686933 1.731983e-38 293 260
-0.032047424 0.70300001 -0.024651866 1.5005201e-38 294 260
-0.030814834 0.70300001 -0.024651866 1.269995e-38 295 260
-0.029455997 0.69999999 -0.024546666 1.4064879e-38 296 260
-0.028148014 0.69800001 -0.024476532 1.3695736e-38 297 260
-0.026885614 0.69700003 -0.024441468 1.4613737e-38 298 260
-0.025663542 0.69700003 -0.024441468 1.4613737e-38 299 260
-0.0244064 0.69599998 -0.0244064 1.3412377e-38 300 260
-0.023119451 0.69400001 -0.024336265 1.2306389e-38 301 260
-0.021902639 0.69400001 -0.024336265 1.1795713e-38 302 260
-0.020685827 0.69400001 -0.024336265 1.6681721e-38 303 260
-0.019469013 0.69400001 -0.024336265 1.5221341e-38 304 260
-0.018225901 0.69300002 -0.024301201 1.5129145e-38 305 260
-0.01701084 0.69300002 -0.024301201 1.4206469e-38 306 260
-0.015795778 0.69300002 -0.024301201 1.337635e-38 307 260
-0.014538639 0.69099998 -0.024231065 7.6735272e-39 308 260
-0.013327086 0.69099998 -0.024231065 6.8437665e-39 309 260
-0.012115533 0.69099998 -0.024231065 8.4031819e-39 310 260
-0.01090398 0.69099998 -0.024231065 8.955997e-39 311 260
-0.0096783992 0.69 -0.024195999 9.6892488e-39 312 260
-0.0084686 0.69 -0.024195999 9.3204677e-39 313 260
-0.0072587994 0.69 -0.024195999 8.4118181e-39 314 260
-0.0060489997 0.69 -0.024195999 7.95084e-39 315 260
-0.0048391996 0.69 -0.024195999 9.6881768e-39 316 260
-0.0036293997 0.69 -0.024195999 9.135003e-39 317 260
-0.0024195998 0.69 -0.024195999 8.7676681e-39 318 260
-0.0012097999 0.69 -0.024195999 8.8598637e-39 319 260
0 0.69 -0.024195999 1.078912e-38 320 260
0.0012097999 0.69 -0.024195999 1.2725228e-38 321 260
0.0024231065 0.69099998 -0.024231065 1.273061e-38 322 260
0.0036346598 0.69099998 -0.024231065 1.273061e-38 323 260
0.0048462129 0.69099998 -0.024231065 1.2362907e-38 324 260
0.0060753003 0.69300002 -0.024301201 1.2547298e-38 325 260
0.0072903596 0.69300002 -0.024301201 1.2087396e-38 326 260
0.0085176928 0.69400001 -0.024336265 1.1810808e-38 327 260
0.0097625591 0.69599998 -0.0244064 1.2817045e-38 328 260
0.01099866 0.69700003 -0.024441468 1.2448621e-38 329 260
0.012220734 0.69700003 -0.024441468 1.1533146e-38 330 260
0.013442807 0.69700003 -0.024441468 1.1533146e-38 331 260
0.01468592 0.69800001 -0.024476532 1.153314e-38 332 260
0.015955333 0.69999999 -0.024546666 1.1164717e-38 333 260
0.017207211 0.70099998 -0.024581732 1.0701215e-38 334 260
0.018488899 0.70300001 -0.024651866 1.1623171e-38 335 260
0.019749546 0.704 -0.024686933 1.2448969e-38 336 260
0.020983893 0.704 -0.024686933 1.2817751e-38 337 260
0.022281358 0.70599997 -0.024757065 1.3280872e-38 338 260
0.023519212 0.70599997 -0.024757065 1.8720773e-38 339 260
-0.040060159 0.71399999 -0.026289478 2.2589008e-38 288 261
-0.038753927 0.713 -0.026252659 2.1758888e-38 289 261
-0.037345998 0.70999998 -0.026142199 1.8619201e-38 290 261
-0.03599944 0.708 -0.026068559 1.6406506e-38 291 261
-0.034659892 0.70599997 -0.025994917 1.5939417e-38 292 261
-0.03332736 0.704 -0.02592128 1.7782969e-38 293 261
-0.032093015 0.704 -0.02592128 1.6393183e-38 294 261
-0.030814834 0.70300001 -0.025884461 1.3996456e-38 295 261
-0.029582238 0.70300001 -0.025884461 1.4810368e-38 296 261
-0.028148014 0.69800001 -0.025700359 1.3150848e-38 297 261
-0.026924185 0.69800001 -0.025700359 1.3971977e-38 298 261
-0.025663542 0.69700003 -0.025663542 1.3511358e-38 299 261
-0.024441468 0.69700003 -0.025663542 1.3875115e-38 300 261
-0.023186078 0.69599998 -0.025626717 1.0928442e-38 301 261
-0.021902639 0.69400001 -0.025553079 1.3518965e-38 302 261
-0.020685827 0.69400001 -0.025553079 2.1632541e-38 303 261
-0.019469013 0.69400001 -0.025553079 1.5497555e-38 304 261
-0.018225901 0.69300002 -0.02551626 1.5129131e-38 305 261
-0.01701084 0.69300002 -0.02551626 1.4298309e-38 306 261
-0.015795778 0.69300002 -0.02551626 1.4021722e-38 307 261
-0.014580719 0.69300002 -0.02551626 1.0248185e-38 308 261
-0.01336566 0.69300002 -0.02551626 1.052513e-38 309 261
-0.012115533 0.69099998 -0.025442619 1.1627153e-38 310 261
-0.01090398 0.69099998 -0.025442619 1.1350925e-38 311 261
-0.0096924258 0.69099998 -0.025442619 1.1255127e-38 312 261
-0.008480873 0.69099998 -0.025442619 1.1900496e-38 313 261
-0.0072693196 0.69099998 -0.025442619 1.263842e-38 314 261
-0.0060577663 0.69099998 -0.025442619 1.2361835e-38 315 261
-0.0048462129 0.69099998 -0.025442619 1.2359684e-38 316 261
-0.0036346598 0.69099998 -0.025442619 1.2083095e-38 317 261
-0.0024195998 0.69 -0.025405798 1.1806513e-38 318 261
-0.0012097999 0.69 -0.025405798 1.143737e-38 319 261
0 0.69 -0.025405798 1.0244572e-38 320 261
0.0012097999 0.69 -0.025405798 1.1166528e-38 321 261
0.0024231065 0.69099998 -0.025442619 1.0524399e-38 322 261
0.0036346598 0.69099998 -0.025442619 1.070879e-38 323 261
0.00486024 0.69300002 -0.02551626 1.1352362e-38 324 261
0.0060753003 0.69300002 -0.02551626 1.1721503e-38 325 261
0.0073008798 0.69400001 -0.025553079 1.2914276e-38 326 261
0.0085176928 0.69400001 -0.025553079 1.2361462e-38 327 261
0.0097625591 0.69599998 -0.025626717 1.2909241e-38 328 261
0.01099866 0.69700003 -0.025663542 1.2540818e-38 329 261
0.012220734 0.69700003 -0.025663542 1.107289e-38 330 261
0.013442807 0.69700003 -0.025663542 1.1165085e-38 331 261
0.014727999 0.69999999 -0.025773998 1.1807932e-38 332 261
0.015955333 0.69999999 -0.025773998 1.1439508e-38 333 261
0.017207211 0.70099998 -0.025810819 1.1531331e-38 334 261
0.018515198 0.704 -0.02592128 1.2084146e-38 335 261
0.019749546 0.704 -0.02592128 1.2543683e-38 336 261
0.021043506 0.70599997 -0.025994917 1.2636237e-38 337 261
0.022281358 0.70599997 -0.025994917 1.3465622e-38 338 261
0.023519212 0.70599997 -0.025994917 1.8720773e-38 339 261
0.025002534 0.713 -0.026252659 2.2219515e-38 340 261
-0.040060159 0.71399999 -0.02754136 2.2496457e-38 288 262
-0.038753927 0.713 -0.027502786 2.175889e-38 289 262
-0.037345998 0.70999998 -0.027387066 1.8712473e-38 290 262
-0.03599944 0.708 -0.027309919 1.5761853e-38 291 262
-0.034708988 0.70700002 -0.027271347 1.4922748e-38 292 262
-0.033422034 0.70599997 -0.027232772 1.7504224e-38 293 262
-0.032093015 0.704 -0.027155625 1.7409512e-38 294 262
-0.030858666 0.704 -0.027155625 1.5934022e-38 295 262
-0.029582238 0.70300001 -0.027117053 1.6207e-38 296 262
-0.028228667 0.69999999 -0.027001332 1.5745662e-38 297 262
-0.026924185 0.69800001 -0.026924185 1.5277812e-38 298 262
-0.025700359 0.69800001 -0.026924185 1.2327911e-38 299 262
-0.024441468 0.69700003 -0.026885614 1.4152759e-38 300 262
-0.023186078 0.69599998 -0.026847038 1.1939705e-38 301 262
-0.021965759 0.69599998 -0.026847038 1.4441282e-38 302 262
-0.020745439 0.69599998 -0.026847038 2.1632541e-38 303 262
-0.019469013 0.69400001 -0.026769891 1.5589035e-38 304 262
-0.0182522 0.69400001 -0.026769891 1.5496839e-38 305 262
-0.01701084 0.69300002 -0.02673132 1.3930602e-38 306 262
-0.015795778 0.69300002 -0.02673132 1.3377429e-38 307 262
-0.014580719 0.69300002 -0.02673132 1.1074333e-38 308 262
-0.01336566 0.69300002 -0.02673132 1.1259083e-38 309 262
-0.012150601 0.69300002 -0.02673132 1.1718983e-38 310 262
-0.01090398 0.69099998 -0.026654173 1.1718983e-38 311 262
-0.0096924258 0.69099998 -0.026654173 1.2726294e-38 312 262
-0.008480873 0.69099998 -0.026654173 1.3279468e-38 313 262
-0.0072693196 0.69099998 -0.026654173 1.2913559e-38 314 262
-0.0060577663 0.69099998 -0.026654173 1.2636973e-38 315 262
-0.0048462129 0.69099998 -0.026654173 1.2452586e-38 316 262
-0.0036346598 0.69099998 -0.026654173 1.2821367e-38 317 262
-0.0024231065 0.69099998 -0.026654173 1.337131e-38 318 262
-0.0012115532 0.69099998 -0.026654173 1.208093e-38 319 262
0 0.69099998 -0.026654173 9.7814472e-39 320 262
0.0012115532 0.69099998 -0.026654173 9.5048617e-39 321 262
0.00243012 0.69300002 -0.02673132 7.6728266e-39 322 262
0.0036451798 0.69300002 -0.02673132 8.5944241e-39 323 262
0.0048672534 0.69400001 -0.026769891 1.0524049e-38 324 262
0.0060840664 0.69400001 -0.026769891 1.0893191e-38 325 262
0.0073008798 0.69400001 -0.026769891 1.1902649e-38 326 262
0.0085422397 0.69599998 -0.026847038 1.1902649e-38 327 262
0.0097765867 0.69700003 -0.026885614 1.3002158e-38 328 262
0.01101444 0.69800001 -0.026924185 1.2172757e-38 329 262
0.012238266 0.69800001 -0.026924185 1.1255117e-38 330 262
0.013462093 0.69800001 -0.026924185 1.1715737e-38 331 262
0.014727999 0.69999999 -0.027001332 1.1715369e-38 332 262
0.015978126 0.70099998 -0.027039904 1.1715369e-38 333 262
0.017256306 0.70300001 -0.027117053 1.1991951e-38 334 262
0.018515198 0.704 -0.027155625 1.2453289e-38 335 262
0.019805651 0.70599997 -0.027232772 1.2821711e-38 336 262
0.021043506 0.70599997 -0.027232772 1.263732e-38 337 262
0.022407599 0.70999998 -0.027387066 1.3648215e-38 338 262
0.023752406 0.713 -0.027502786 1.8811171e-38 339 262
0.025002534 0.713 -0.027502786 2.2402106e-38 340 262
-0.040060159 0.71399999 -0.028793238 2.2588655e-38 288 263
-0.038645219 0.71100003 -0.028672259 2.185109e-38 289 263
-0.037345998 0.70999998 -0.028631933 1.8989782e-38 290 263
-0.036101133 0.70999998 -0.028631933 1.5762935e-38 291 263
-0.034758076 0.708 -0.02855128 1.4180866e-38 292 263
-0.033469379 0.70700002 -0.028510952 1.6301367e-38 293 263
-0.032093015 0.704 -0.028389972 1.6306051e-38 294 263
-0.030858666 0.704 -0.028389972 1.5936909e-38 295 263
-0.029624319 0.704 -0.028389972 1.6674464e-38 296 263
-0.028349647 0.70300001 -0.028349647 1.6766659e-38 297 263
-0.027001332 0.69999999 -0.028228667 1.6760873e-38 298 263
-0.025700359 0.69800001 -0.028148014 1.4179396e-38 299 263
-0.024476532 0.69800001 -0.028148014 1.4338592e-38 300 263
-0.023219392 0.69700003 -0.028107686 1.1296136e-38 301 263
-0.021965759 0.69599998 -0.028067358 1.4442348e-38 302 263
-0.020745439 0.69599998 -0.028067358 2.1541412e-38 303 263
-0.019525118 0.69599998 -0.028067358 1.5956738e-38 304 263
-0.0182522 0.69400001 -0.027986705 1.5864543e-38 305 263
-0.017035386 0.69400001 -0.027986705 1.4115347e-38 306 263
-0.015795778 0.69300002 -0.027946379 1.3469977e-38 307 263
-0.014580719 0.69300002 -0.027946379 1.2087043e-38 308 263
-0.01336566 0.69300002 -0.027946379 1.1994847e-38 309 263
-0.012150601 0.69300002 -0.027946379 1.2179241e-38 310 263
-0.010935539 0.69300002 -0.027946379 1.2455468e-38 311 263
-0.0096924258 0.69099998 -0.027865725 1.2546222e-38 312 263
-0.008480873 0.69099998 -0.027865725 1.2730613e-38 313 263
-0.0072903596 0.69300002 -0.027946379 1.2547654e-38 314 263
-0.0060753003 0.69300002 -0.027946379 1.2731686e-38 315 263
-0.00486024 0.69300002 -0.027946379 1.2543701e-38 316 263
-0.0036451798 0.69300002 -0.027946379 1.1990528e-38 317 263
-0.00243012 0.69300002 -0.027946379 1.180938e-38 318 263
-0.00121506 0.69300002 -0.027946379 1.116401e-38 319 263
0 0.69300002 -0.027946379 1.1344809e-38 320 263
0.00121506 0.69300002 -0.027946379 1.1160416e-38 321 263
0.00243012 0.69300002 -0.027946379 1.0061628e-38 322 263
0.0036504399 0.69400001 -0.027986705 1.024602e-38 323 263
0.0048672534 0.69400001 -0.027986705 1.0798472e-38 324 263
0.0060840664 0.69400001 -0.027986705 1.1351646e-38 325 263
0.0073219193 0.69599998 -0.028067358 1.2085961e-38 326 263
0.0085545136 0.69700003 -0.028107686 1.2178515e-38 327 263
0.0097765867 0.69700003 -0.028107686 1.2819563e-38 328 263
0.01101444 0.69800001 -0.028148014 1.2358944e-38 329 263
0.012238266 0.69800001 -0.028148014 1.2174194e-38 330 263
0.013462093 0.69800001 -0.028148014 1.1990161e-38 331 263
0.014727999 0.69999999 -0.028228667 1.1438427e-38 332 263
0.016023712 0.70300001 -0.028349647 1.1715372e-38 333 263
0.017256306 0.70300001 -0.028349647 1.2084152e-38 334 263
0.018515198 0.704 -0.028389972 1.2360739e-38 335 263
0.019805651 0.70599997 -0.028470624 1.2453289e-38 336 263
0.021043506 0.70599997 -0.028470624 1.2361092e-38 337 263
0.022312919 0.70700002 -0.028510952 1.3924079e-38 338 263
0.023585839 0.708 -0.02855128 1.9087035e-38 339 263
0.024827199 0.708 -0.02855128 2.2218075e-38 340 263
-0.039891839 0.71100003 -0.029918881 2.2679772e-38 288 264
-0.038645219 0.71100003 -0.029918881 2.1850371e-38 289 264
-0.037345998 0.70999998 -0.029876797 1.889723e-38 290 264
-0.036101133 0.70999998 -0.029876797 1.6315752e-38 291 264
-0.034758076 0.708 -0.02979264 1.436634e-38 292 264
-0.033516716 0.708 -0.02979264 1.3444744e-38 293 264
-0.032093015 0.704 -0.029624319 1.4825532e-38 294 264
-0.030858666 0.704 -0.029624319 1.5470901e-38 295 264
-0.029624319 0.704 -0.029624319 1.6581191e-38 296 264
-0.028349647 0.70300001 -0.029582238 1.722656e-38 297 264
-0.027117053 0.70300001 -0.029582238 1.7869389e-38 298 264
-0.025700359 0.69800001 -0.029371841 1.5933281e-38 299 264
-0.024476532 0.69800001 -0.029371841 1.4527314e-38 300 264
-0.023219392 0.69700003 -0.02932976 1.019448e-38 301 264
-0.02199732 0.69700003 -0.02932976 1.4441982e-38 302 264
-0.020775247 0.69700003 -0.02932976 2.1633241e-38 303 264
-0.019553173 0.69700003 -0.02932976 1.5957813e-38 304 264
-0.018304799 0.69599998 -0.029287677 1.5773063e-38 305 264
-0.017035386 0.69400001 -0.029203519 1.4299383e-38 306 264
-0.015818574 0.69400001 -0.029203519 1.3930602e-38 307 264
-0.01460176 0.69400001 -0.029203519 1.2547668e-38 308 264
-0.013384946 0.69400001 -0.029203519 1.2455471e-38 309 264
-0.012168133 0.69400001 -0.029203519 1.2546952e-38 310 264
-0.01095132 0.69400001 -0.029203519 1.2823179e-38 311 264
-0.0097204801 0.69300002 -0.029161438 1.1996298e-38 312 264
-0.0085054198 0.69300002 -0.029161438 1.2456917e-38 313 264
-0.0072903596 0.69300002 -0.029161438 1.3008279e-38 314 264
-0.0060753003 0.69300002 -0.029161438 1.3100474e-38 315 264
-0.00486024 0.69300002 -0.029161438 1.2821367e-38 316 264
-0.0036451798 0.69300002 -0.029161438 1.0792704e-38 317 264
-0.00243012 0.69300002 -0.029161438 9.8768645e-39 318 264
-0.00121506 0.69300002 -0.029161438 1.0061257e-38 319 264
0 0.69300002 -0.029161438 1.1713221e-38 320 264
0.0012168133 0.69400001 -0.029203519 1.1713221e-38 321 264
0.0024336267 0.69400001 -0.029203519 1.0794142e-38 322 264
0.0036504399 0.69400001 -0.029203519 1.0978173e-38 323 264
0.0048672534 0.69400001 -0.029203519 1.1993045e-38 324 264
0.0061015999 0.69599998 -0.029287677 1.2269992e-38 325 264
0.0073219193 0.69599998 -0.029287677 1.1901929e-38 326 264
0.0085545136 0.69700003 -0.02932976 1.2085961e-38 327 264
0.0097765867 0.69700003 -0.02932976 1.2268906e-38 328 264
0.01101444 0.69800001 -0.029371841 1.2361462e-38 329 264
0.012238266 0.69800001 -0.029371841 1.2726645e-38 330 264
0.013500666 0.69999999 -0.029455997 1.1989079e-38 331 264
0.014749039 0.70099998 -0.029498078 1.1713572e-38 332 264
0.016023712 0.70300001 -0.029582238 1.217455e-38 333 264
0.017280852 0.704 -0.029624319 1.2175273e-38 334 264
0.018515198 0.704 -0.029624319 1.2267827e-38 335 264
0.019805651 0.70599997 -0.029708479 1.2543685e-38 336 264
0.021073313 0.70700002 -0.029750559 1.2635881e-38 337 264
0.022312919 0.70700002 -0.029750559 1.4200668e-38 338 264
0.023585839 0.708 -0.02979264 1.9271426e-38 339 264
0.024827199 0.708 -0.02979264 2.2218078e-38 340 264
-0.040004052 0.713 -0.031253166 2.2771965e-38 288 265
-0.038753927 0.713 -0.031253166 2.1758171e-38 289 265
-0.037345998 0.70999998 -0.031121666 1.8436975e-38 290 265
-0.036101133 0.70999998 -0.031121666 1.6408671e-38 291 265
-0.034758076 0.708 -0.031034 1.5754666e-38 292 265
-0.033516716 0.708 -0.031034 1.3173188e-38 293 265
-0.032093015 0.704 -0.030858666 1.4259039e-38 294 265
-0.030858666 0.704 -0.030858666 1.3889896e-38 295 265
-0.029624319 0.704 -0.030858666 1.4631414e-38 296 265
-0.028349647 0.70300001 -0.030814834 1.7028142e-38 297 265
-0.027117053 0.70300001 -0.030814834 1.6669423e-38 298 265
-0.025773998 0.69999999 -0.030683333 1.6392835e-38 299 265
-0.024476532 0.69800001 -0.030595668 1.4620962e-38 300 265
-0.023219392 0.69700003 -0.030551834 1.001118e-38 301 265
-0.02199732 0.69700003 -0.030551834 1.4349788e-38 302 265
-0.020775247 0.69700003 -0.030551834 2.1541047e-38 303 265
-0.019553173 0.69700003 -0.030551834 1.5681947e-38 304 265
-0.018304799 0.69599998 -0.030507999 1.5681947e-38 305 265
-0.017084479 0.69599998 -0.030507999 1.3840205e-38 306 265
-0.015818574 0.69400001 -0.030420333 1.3563618e-38 307 265
-0.01460176 0.69400001 -0.030420333 1.1443841e-38 308 265
-0.013384946 0.69400001 -0.030420333 1.1628232e-38 309 265
-0.012168133 0.69400001 -0.030420333 1.2455119e-38 310 265
-0.01095132 0.69400001 -0.030420333 1.2547315e-38 311 265
-0.0097345067 0.69400001 -0.030420333 1.2455119e-38 312 265
-0.0085176928 0.69400001 -0.030420333 1.2732065e-38 313 265
-0.0073008798 0.69400001 -0.030420333 1.2824613e-38 314 265
-0.0060840664 0.69400001 -0.030420333 1.2732059e-38 315 265
-0.0048672534 0.69400001 -0.030420333 1.2823176e-38 316 265
-0.0036451798 0.69300002 -0.0303765 1.1717187e-38 317 265
-0.00243012 0.69300002 -0.0303765 1.0521165e-38 318 265
-0.00121506 0.69300002 -0.0303765 1.0060187e-38 319 265
0 0.69400001 -0.030420333 1.1254764e-38 320 265
0.0012168133 0.69400001 -0.030420333 1.1623186e-38 321 265
0.0024336267 0.69400001 -0.030420333 1.235607e-38 322 265
0.0036609597 0.69599998 -0.030507999 1.2817048e-38 323 265
0.0048812795 0.69599998 -0.030507999 1.3096158e-38 324 265
0.0061015999 0.69599998 -0.030507999 1.2266039e-38 325 265
0.00733244 0.69700003 -0.030551834 1.1624272e-38 326 265
0.0085545136 0.69700003 -0.030551834 1.1992695e-38 327 265
0.0097906133 0.69800001 -0.030595668 1.2085244e-38 328 265
0.01101444 0.69800001 -0.030595668 1.1993048e-38 329 265
0.012273333 0.69999999 -0.030683333 1.2453655e-38 330 265
0.013500666 0.69999999 -0.030683333 1.2269262e-38 331 265
0.014791119 0.70300001 -0.030814834 1.1900481e-38 332 265
0.016046507 0.704 -0.030858666 1.1900481e-38 333 265
0.017280852 0.704 -0.030858666 1.2175273e-38 334 265
0.018567799 0.70599997 -0.030946331 1.2451858e-38 335 265
0.019833706 0.70700002 -0.030990168 1.2726998e-38 336 265
0.021103119 0.708 -0.031034 1.3464563e-38 337 265
0.022344479 0.708 -0.031034 1.4753844e-38 338 265
0.023652466 0.70999998 -0.031121666 1.9086679e-38 339 265
0.024897331 0.70999998 -0.031121666 2.2218078e-38 340 265
-0.040004052 0.713 -0.032503292 2.2680125e-38 288 266
-0.038753927 0.713 -0.032503292 2.1850364e-38 289 266
-0.037345998 0.70999998 -0.032366529 1.8621725e-38 290 266
-0.036101133 0.70999998 -0.032366529 1.6961844e-38 291 266
-0.034856264 0.70999998 -0.032366529 1.6127045e-38 292 266
-0.033516716 0.708 -0.03227536 1.3637763e-38 293 266
-0.032229774 0.70700002 -0.032229774 1.435697e-38 294 266
-0.030946331 0.70599997 -0.032184184 1.2144275e-38 295 266
-0.029624319 0.704 -0.032093015 1.3147644e-38 296 266
-0.028349647 0.70300001 -0.032047424 1.5360697e-38 297 266
-0.027117053 0.70300001 -0.032047424 1.5924674e-38 298 266
-0.025810819 0.70099998 -0.031956252 1.5739924e-38 299 266
-0.024546666 0.69999999 -0.031910665 1.4896842e-38 300 266
-0.023252707 0.69800001 -0.031819493 1.0195225e-38 301 266
-0.02202888 0.69800001 -0.031819493 1.4439477e-38 302 266
-0.020805053 0.69800001 -0.031819493 2.1815486e-38 303 266
-0.019581227 0.69800001 -0.031819493 1.5865618e-38 304 266
-0.018331099 0.69700003 -0.03177391 1.5865618e-38 305 266
-0.017109027 0.69700003 -0.03177391 1.4023517e-38 306 266
-0.015864158 0.69599998 -0.031728316 1.3562897e-38 307 266
-0.01460176 0.69400001 -0.031637147 1.116725e-38 308 266
-0.013384946 0.69400001 -0.031637147 1.1444197e-38 309 266
-0.012168133 0.69400001 -0.031637147 1.1996298e-38 310 266
-0.01095132 0.69400001 -0.031637147 1.1996298e-38 311 266
-0.0097345067 0.69400001 -0.031637147 1.1628601e-38 312 266
-0.0085176928 0.69400001 -0.031637147 1.1536405e-38 313 266
-0.0073008798 0.69400001 -0.031637147 1.2179977e-38 314 266
-0.0060840664 0.69400001 -0.031637147 1.2179977e-38 315 266
-0.0048672534 0.69400001 -0.031637147 1.2455122e-38 316 266
-0.0036504399 0.69400001 -0.031637147 1.2547318e-38 317 266
-0.0024336267 0.69400001 -0.031637147 1.1627882e-38 318 266
-0.0012168133 0.69400001 -0.031637147 1.1074348e-38 319 266
0 0.69599998 -0.031728316 1.1900499e-38 320 266
0.0012203199 0.69599998 -0.031728316 1.2177087e-38 321 266
0.0024406398 0.69599998 -0.031728316 1.1991603e-38 322 266
0.0036609597 0.69599998 -0.031728316 1.226819e-38 323 266
0.0048812795 0.69599998 -0.031728316 1.2911046e-38 324 266
0.0061103669 0.69700003 -0.03177391 1.2265676e-38 325 266
0.00733244 0.69700003 -0.03177391 1.1992329e-38 326 266
0.0085545136 0.69700003 -0.03177391 1.1992329e-38 327 266
0.0097906133 0.69800001 -0.031819493 1.1808654e-38 328 266
0.01101444 0.69800001 -0.031819493 1.1993045e-38 329 266
0.012273333 0.69999999 -0.031910665 1.2361459e-38 330 266
0.013558527 0.70300001 -0.032047424 1.2361459e-38 331 266
0.014812159 0.704 -0.032093015 1.2544404e-38 332 266
0.016092092 0.70599997 -0.032184184 1.2544404e-38 333 266
0.017329946 0.70599997 -0.032184184 1.2269612e-38 334 266
0.018567799 0.70599997 -0.032184184 1.2361809e-38 335 266
0.01986176 0.708 -0.03227536 1.3095061e-38 336 266
0.021103119 0.708 -0.03227536 1.3832626e-38 337 266
0.022407599 0.70999998 -0.032366529 1.4571616e-38 338 266
0.023652466 0.70999998 -0.032366529 1.872042e-38 339 266
0.024897331 0.70999998 -0.032366529 2.2218794e-38 340 266
-0.038753927 0.713 -0.033753417 2.2035479e-38 289 267
-0.037398599 0.71100003 -0.033658739 1.9267813e-38 290 267
-0.036101133 0.70999998 -0.033611398 1.7516098e-38 291 267
-0.034856264 0.70999998 -0.033611398 1.6130289e-38 292 267
-0.033516716 0.708 -0.033516716 1.3641366e-38 293 267
-0.032229774 0.70700002 -0.033469379 1.5197176e-38 294 267
-0.030990168 0.70700002 -0.033469379 1.3722406e-38 295 267
-0.029708479 0.70599997 -0.033422034 1.4170063e-38 296 267
-0.028349647 0.70300001 -0.033280019 1.1680781e-38 297 267
-0.027117053 0.70300001 -0.033280019 1.3600702e-38 298 267
-0.025810819 0.70099998 -0.03318534 1.4061321e-38 299 267
-0.024546666 0.69999999 -0.033137999 1.4245712e-38 300 267
-0.023319334 0.69999999 -0.033137999 1.1756789e-38 301 267
-0.02202888 0.69800001 -0.033043321 1.4531675e-38 302 267
-0.020805053 0.69800001 -0.033043321 2.1999521e-38 303 267
-0.019581227 0.69800001 -0.033043321 1.595781e-38 304 267
-0.0183574 0.69800001 -0.033043321 1.595781e-38 305 267
-0.017109027 0.69700003 -0.03299598 1.4299383e-38 306 267
-0.015886955 0.69700003 -0.03299598 1.3838407e-38 307 267
-0.01466488 0.69700003 -0.03299598 1.1534958e-38 308 267
-0.013442807 0.69700003 -0.03299598 1.1811903e-38 309 267
-0.0122032 0.69599998 -0.032948639 1.1904465e-38 310 267
-0.010982879 0.69599998 -0.032948639 1.1812269e-38 311 267
-0.0097625591 0.69599998 -0.032948639 1.1350939e-38 312 267
-0.0085176928 0.69400001 -0.032853961 1.089032e-38 313 267
-0.0073008798 0.69400001 -0.032853961 1.0618765e-38 314 267
-0.0061015999 0.69599998 -0.032948639 1.1633276e-38 315 267
-0.0048812795 0.69599998 -0.032948639 1.2091011e-38 316 267
-0.0036609597 0.69599998 -0.032948639 1.1629673e-38 317 267
-0.0024406398 0.69599998 -0.032948639 1.1446361e-38 318 267
-0.0012203199 0.69599998 -0.032948639 1.1538558e-38 319 267
0 0.69700003 -0.03299598 1.2177806e-38 320 267
0.0012220733 0.69700003 -0.03299598 1.2177806e-38 321 267
0.0024441467 0.69700003 -0.03299598 1.2085244e-38 322 267
0.00366622 0.69700003 -0.03299598 1.2085244e-38 323 267
0.0048882933 0.69700003 -0.03299598 1.2452586e-38 324 267
0.0061103669 0.69700003 -0.03299598 1.2360389e-38 325 267
0.0073429602 0.69800001 -0.033043321 1.1534588e-38 326 267
0.0085667865 0.69800001 -0.033043321 1.1350197e-38 327 267
0.0097906133 0.69800001 -0.033043321 1.0524752e-38 328 267
0.011045999 0.69999999 -0.033137999 1.098609e-38 329 267
0.012273333 0.69999999 -0.033137999 1.2728449e-38 330 267
0.013558527 0.70300001 -0.033280019 1.2636254e-38 331 267
0.014812159 0.704 -0.03332736 1.2360742e-38 332 267
0.016092092 0.70599997 -0.033422034 1.2360742e-38 333 267
0.017329946 0.70599997 -0.033422034 1.2178147e-38 334 267
0.0186204 0.708 -0.033516716 1.2731319e-38 335 267
0.019917866 0.70999998 -0.033611398 1.401702e-38 336 267
0.021162732 0.70999998 -0.033611398 1.383227e-38 337 267
0.022439159 0.71100003 -0.033658739 1.3925525e-38 338 267
0.023752406 0.713 -0.033753417 1.8904088e-38 339 267
0.025002534 0.713 -0.033753417 2.2218794e-38 340 267
-0.038645219 0.71100003 -0.034905359 2.240426e-38 289 268
-0.037398599 0.71100003 -0.034905359 1.982243e-38 290 268
-0.036101133 0.70999998 -0.034856264 1.7794125e-38 291 268
-0.034856264 0.70999998 -0.034856264 1.6595233e-38 292 268
-0.033516716 0.708 -0.034758076 1.4659125e-38 293 268
-0.032229774 0.70700002 -0.034708988 1.557784e-38 294 268
-0.030990168 0.70700002 -0.034708988 1.493247e-38 295 268
-0.029708479 0.70599997 -0.034659892 1.4097302e-38 296 268
-0.028389972 0.704 -0.034561705 1.2068998e-38 297 268
-0.027117053 0.70300001 -0.034512613 1.2880394e-38 298 268
-0.025810819 0.70099998 -0.034414422 1.1128678e-38 299 268
-0.024581732 0.70099998 -0.034414422 1.323586e-38 300 268
-0.023319334 0.69999999 -0.034365334 1.0746579e-38 301 268
-0.022091998 0.69999999 -0.034365334 1.4256165e-38 302 268
-0.020864666 0.69999999 -0.034365334 2.1631455e-38 303 268
-0.019581227 0.69800001 -0.034267146 1.5866695e-38 304 268
-0.0183574 0.69800001 -0.034267146 1.5774498e-38 305 268
-0.017133573 0.69800001 -0.034267146 1.4208267e-38 306 268
-0.015909746 0.69800001 -0.034267146 1.374729e-38 307 268
-0.01466488 0.69700003 -0.034218054 1.1536761e-38 308 268
-0.013442807 0.69700003 -0.034218054 1.1444207e-38 309 268
-0.0122032 0.69599998 -0.034168959 1.1720797e-38 310 268
-0.010982879 0.69599998 -0.034168959 1.1720797e-38 311 268
-0.0097625591 0.69599998 -0.034168959 1.1995588e-38 312 268
-0.0085422397 0.69599998 -0.034168959 1.1626806e-38 313 268
-0.0073219193 0.69599998 -0.034168959 1.0985753e-38 314 268
-0.0061103669 0.69700003 -0.034218054 1.1077948e-38 315 268
-0.0048882933 0.69700003 -0.034218054 1.208886e-38 316 268
-0.00366622 0.69700003 -0.034218054 1.1535687e-38 317 268
-0.0024441467 0.69700003 -0.034218054 1.1536405e-38 318 268
-0.0012220733 0.69700003 -0.034218054 1.1720797e-38 319 268
0 0.69700003 -0.034218054 1.2272523e-38 320 268
0.0012220733 0.69700003 -0.034218054 1.1904099e-38 321 268
0.0024441467 0.69700003 -0.034218054 1.2178159e-38 322 268
0.00366622 0.69700003 -0.034218054 1.2178159e-38 323 268
0.0048882933 0.69700003 -0.034218054 1.2177794e-38 324 268
0.006119133 0.69800001 -0.034267146 1.2269989e-38 325 268
0.0073429602 0.69800001 -0.034267146 1.2452586e-38 326 268
0.0085667865 0.69800001 -0.034267146 1.2268193e-38 327 268
0.0098186666 0.69999999 -0.034365334 1.1901934e-38 328 268
0.011045999 0.69999999 -0.034365334 1.2085967e-38 329 268
0.012290866 0.70099998 -0.034414422 1.2361109e-38 330 268
0.013577812 0.704 -0.034561705 1.2361109e-38 331 268
0.014854239 0.70599997 -0.034659892 1.2636251e-38 332 268
0.016092092 0.70599997 -0.034659892 1.2636251e-38 333 268
0.017354494 0.70700002 -0.034708988 1.3281253e-38 334 268
0.0186204 0.708 -0.034758076 1.3465286e-38 335 268
0.019917866 0.70999998 -0.034856264 1.3925541e-38 336 268
0.021192541 0.71100003 -0.034905359 1.374151e-38 337 268
0.022439159 0.71100003 -0.034905359 1.3832607e-38 338 268
0.02378572 0.71399999 -0.035052639 1.8903366e-38 339 268
0.025107734 0.71600002 -0.035150826 2.2402106e-38 340 268
-0.038808275 0.71399999 -0.036304519 2.2679769e-38 289 269
-0.037503798 0.713 -0.036253672 2.0006822e-38 290 269
-0.036151983 0.71100003 -0.036151983 1.7794125e-38 291 269
-0.034856264 0.70999998 -0.036101133 1.6506284e-38 292 269
-0.033516716 0.708 -0.03599944 1.6229337e-38 293 269
-0.03227536 0.708 -0.03599944 1.6598495e-38 294 269
-0.030990168 0.70700002 -0.035948593 1.6229353e-38 295 269
-0.029708479 0.70599997 -0.035897743 1.5673302e-38 296 269
-0.028389972 0.704 -0.035796054 1.5673302e-38 297 269
-0.027155625 0.704 -0.035796054 1.612814e-38 298 269
-0.025810819 0.70099998 -0.035643511 1.2901293e-38 299 269
-0.024581732 0.70099998 -0.035643511 1.3250234e-38 300 269
-0.023319334 0.69999999 -0.035592664 8.3638643e-39 301 269
-0.022091998 0.69999999 -0.035592664 1.4069227e-38 302 269
-0.020864666 0.69999999 -0.035592664 2.1998051e-38 303 269
-0.019581227 0.69800001 -0.035490975 1.5683021e-38 304 269
-0.0183574 0.69800001 -0.035490975 1.5775218e-38 305 269
-0.017133573 0.69800001 -0.035490975 1.4208631e-38 306 269
-0.015909746 0.69800001 -0.035490975 1.3655457e-38 307 269
-0.01466488 0.69700003 -0.035440128 1.1446008e-38 308 269
-0.013442807 0.69700003 -0.035440128 1.1446008e-38 309 269
-0.012220734 0.69700003 -0.035440128 1.1721517e-38 310 269
-0.01099866 0.69700003 -0.035440128 1.1814071e-38 311 269
-0.0097765867 0.69700003 -0.035440128 1.2457639e-38 312 269
-0.0085545136 0.69700003 -0.035440128 1.2457639e-38 313 269
-0.00733244 0.69700003 -0.035440128 1.1536408e-38 314 269
-0.006119133 0.69800001 -0.035490975 1.0891039e-38 315 269
-0.0048953067 0.69800001 -0.035490975 1.1627888e-38 316 269
-0.0036714801 0.69800001 -0.035490975 1.1996312e-38 317 269
-0.0024476533 0.69800001 -0.035490975 1.1996665e-38 318 269
-0.0012238267 0.69800001 -0.035490975 1.2181056e-38 319 269
0 0.69800001 -0.035490975 1.2549831e-38 320 269
0.0012238267 0.69800001 -0.035490975 1.1904462e-38 321 269
0.0024476533 0.69800001 -0.035490975 1.2085611e-38 322 269
0.0036714801 0.69800001 -0.035490975 1.2177806e-38 323 269
0.0048953067 0.69800001 -0.035490975 1.2269992e-38 324 269
0.006119133 0.69800001 -0.035490975 1.2362188e-38 325 269
0.0073639993 0.69999999 -0.035592664 1.2269992e-38 326 269
0.0085913334 0.69999999 -0.035592664 1.2085241e-38 327 269
0.0098186666 0.69999999 -0.035592664 1.2268556e-38 328 269
0.011061779 0.70099998 -0.035643511 1.2268556e-38 329 269
0.012325933 0.70300001 -0.035745207 1.2360033e-38 330 269
0.013577812 0.704 -0.035796054 1.2452588e-38 331 269
0.014854239 0.70599997 -0.035897743 1.25455e-38 332 269
0.016114887 0.70700002 -0.035948593 1.3098674e-38 333 269
0.017354494 0.70700002 -0.035948593 1.3649677e-38 334 269
0.018672999 0.70999998 -0.036101133 1.3465286e-38 335 269
0.01994592 0.71100003 -0.036151983 1.3281606e-38 336 269
0.021192541 0.71100003 -0.036151983 1.3189052e-38 337 269
0.022502279 0.713 -0.036253672 1.3925525e-38 338 269
0.02378572 0.71399999 -0.036304519 1.9088481e-38 339 269
0.025107734 0.71600002 -0.036406212 2.2401387e-38 340 269
0.026363119 0.71600002 -0.036406212 2.2309191e-38 341 269
-0.038808275 0.71399999 -0.037556399 2.2219868e-38 289 270
-0.037503798 0.713 -0.037503798 1.963984e-38 290 270
-0.036151983 0.71100003 -0.037398599 1.7611177e-38 291 270
-0.034856264 0.70999998 -0.037345998 1.6046391e-38 292 270
-0.033611398 0.70999998 -0.037345998 1.5308826e-38 293 270
-0.03227536 0.708 -0.0372408 1.5677265e-38 294 270
-0.030990168 0.70700002 -0.037188202 1.5677265e-38 295 270
-0.029708479 0.70599997 -0.037135597 1.4664202e-38 296 270
-0.028389972 0.704 -0.037030395 1.5217375e-38 297 270
-0.027155625 0.704 -0.037030395 1.7056234e-38 298 270
-0.025884461 0.70300001 -0.036977798 1.6871841e-38 299 270
-0.024651866 0.70300001 -0.036977798 1.5573856e-38 300 270
-0.023319334 0.69999999 -0.036819998 1.1332856e-38 301 270
-0.022091998 0.69999999 -0.036819998 1.3170308e-38 302 270
-0.020864666 0.69999999 -0.036819998 1.7872285e-38 303 270
-0.019637333 0.69999999 -0.036819998 1.5681947e-38 304 270
-0.018409999 0.69999999 -0.036819998 1.6050729e-38 305 270
-0.017133573 0.69800001 -0.0367148 1.3933122e-38 306 270
-0.015909746 0.69800001 -0.0367148 1.3379949e-38 307 270
-0.01468592 0.69800001 -0.0367148 1.1261614e-38 308 270
-0.013462093 0.69800001 -0.0367148 1.1630756e-38 309 270
-0.012238266 0.69800001 -0.0367148 1.199846e-38 310 270
-0.01099866 0.69700003 -0.036662199 1.199846e-38 311 270
-0.0097765867 0.69700003 -0.036662199 1.245692e-38 312 270
-0.0085667865 0.69800001 -0.0367148 1.2272529e-38 313 270
-0.0073429602 0.69800001 -0.0367148 1.1995588e-38 314 270
-0.006119133 0.69800001 -0.0367148 1.1903393e-38 315 270
-0.0048953067 0.69800001 -0.0367148 1.1996665e-38 316 270
-0.0036714801 0.69800001 -0.0367148 1.2181056e-38 317 270
-0.0024476533 0.69800001 -0.0367148 1.2088858e-38 318 270
-0.0012238267 0.69800001 -0.0367148 1.2088858e-38 319 270
0 0.69800001 -0.0367148 1.2364721e-38 320 270
0.0012238267 0.69800001 -0.0367148 1.1996298e-38 321 270
0.0024476533 0.69800001 -0.0367148 1.2452954e-38 322 270
0.0036714801 0.69800001 -0.0367148 1.2360758e-38 323 270
0.0048953067 0.69800001 -0.0367148 1.2177443e-38 324 270
0.006119133 0.69800001 -0.0367148 1.2361835e-38 325 270
0.0073639993 0.69999999 -0.036819998 1.2362554e-38 326 270
0.0085913334 0.69999999 -0.036819998 1.2270358e-38 327 270
0.0098326923 0.70099998 -0.036872596 1.2635898e-38 328 270
0.011061779 0.70099998 -0.036872596 1.2635898e-38 329 270
0.012325933 0.70300001 -0.036977798 1.2360389e-38 330 270
0.013616386 0.70599997 -0.037135597 1.2083443e-38 331 270
0.01487528 0.70700002 -0.037188202 1.2177797e-38 332 270
0.016114887 0.70700002 -0.037188202 1.273061e-38 333 270
0.017379038 0.708 -0.0372408 1.3003945e-38 334 270
0.018672999 0.70999998 -0.037345998 1.2911749e-38 335 270
0.01994592 0.71100003 -0.037398599 1.2452206e-38 336 270
0.021252153 0.713 -0.037503798 1.2452206e-38 337 270
0.022502279 0.713 -0.037503798 1.3558182e-38 338 270
0.02378572 0.71399999 -0.037556399 1.8998083e-38 339 270
0.025107734 0.71600002 -0.037661601 2.2402106e-38 340 270
0.026363119 0.71600002 -0.037661601 2.2033684e-38 341 270
-0.038916986 0.71600002 -0.038916986 2.221915e-38 289 271
-0.037556399 0.71399999 -0.038808275 1.9455091e-38 290 271
-0.036151983 0.71100003 -0.038645219 1.761118e-38 291 271
-0.034905359 0.71100003 -0.038645219 1.6231142e-38 292 271
-0.033611398 0.70999998 -0.038590867 1.5493576e-38 293 271
-0.03227536 0.708 -0.038482159 1.4572709e-38 294 271
-0.031034 0.708 -0.038482159 1.4572709e-38 295 271
-0.029750559 0.70700002 -0.038427804 1.4389047e-38 296 271
-0.028470624 0.70599997 -0.038373452 1.4757469e-38 297 271
-0.027155625 0.704 -0.038264744 1.5954578e-38 298 271
-0.025884461 0.70300001 -0.038210396 1.7521543e-38 299 271
-0.024651866 0.70300001 -0.038210396 1.7979635e-38 300 271
-0.023352645 0.70099998 -0.038101684 1.5490353e-38 301 271
-0.022091998 0.69999999 -0.038047329 1.3744747e-38 302 271
-0.020864666 0.69999999 -0.038047329 1.4666703e-38 303 271
-0.019665385 0.70099998 -0.038101684 1.5406441e-38 304 271
-0.018409999 0.69999999 -0.038047329 1.5774865e-38 305 271
-0.017182667 0.69999999 -0.038047329 1.4208631e-38 306 271
-0.015955333 0.69999999 -0.038047329 1.3563262e-38 307 271
-0.01468592 0.69800001 -0.037938625 1.1168696e-38 308 271
-0.013462093 0.69800001 -0.037938625 1.172187e-38 309 271
-0.012238266 0.69800001 -0.037938625 1.2641667e-38 310 271
-0.01101444 0.69800001 -0.037938625 1.2364721e-38 311 271
-0.0097906133 0.69800001 -0.037938625 1.2454766e-38 312 271
-0.0085667865 0.69800001 -0.037938625 1.2178538e-38 313 271
-0.0073429602 0.69800001 -0.037938625 1.2178541e-38 314 271
-0.006119133 0.69800001 -0.037938625 1.2178541e-38 315 271
-0.0049093333 0.69999999 -0.038047329 1.2362925e-38 316 271
-0.0036714801 0.69800001 -0.037938625 1.2547318e-38 317 271
-0.0024476533 0.69800001 -0.037938625 1.2455122e-38 318 271
