# .PCD v.7 - Point Cloud Data file format
FIELDS x y z rgb imX imY
SIZE 4 4 4 4 4 4
TYPE F F F F F F
COUNT 1 1 1 1 1 1
WIDTH 834
HEIGHT 1
VIEWPOINT 0 0 0 1 0 0 0
POINTS 834
DATA ascii
-0.00486024 0.69300002 -0.027946379 1.208669e-38 316 263
-0.0036451798 0.69300002 -0.027946379 1.2363275e-38 317 263
-0.00243012 0.69300002 -0.027946379 1.263842e-38 318 263
-0.00121506 0.69300002 -0.027946379 1.1993051e-38 319 263
0 0.69300002 -0.027946379 1.2635547e-38 320 263
0.00121506 0.69300002 -0.027946379 1.1437004e-38 321 263
0.0024336267 0.69400001 -0.027986705 1.0426092e-38 322 263
0.0036504399 0.69400001 -0.027986705 9.9654742e-39 323 263
0.0048672534 0.69400001 -0.027986705 9.601372e-39 324 263
0.0060840664 0.69400001 -0.027986705 9.8779603e-39 325 263
0.0073219193 0.69599998 -0.028067358 9.6024468e-39 326 263
0.0085422397 0.69599998 -0.028067358 1.0155619e-38 327 263
0.0097765867 0.69700003 -0.028107686 1.1533146e-38 328 263
0.01101444 0.69800001 -0.028148014 1.1717537e-38 329 263
0.012238266 0.69800001 -0.028148014 1.2175994e-38 330 263
0.013462093 0.69800001 -0.028148014 1.2175994e-38 331 263
0.014727999 0.69999999 -0.028228667 1.2819196e-38 332 263
0.015978126 0.70099998 -0.028268991 1.2819196e-38 333 263
0.017207211 0.70099998 -0.028268991 1.2450771e-38 334 263
0.018515198 0.704 -0.028389972 1.2358575e-38 335 263
0.019805651 0.70599997 -0.028470624 1.2268177e-38 336 263
0.021043506 0.70599997 -0.028470624 1.2268177e-38 337 263
0.022344479 0.708 -0.02855128 1.3002849e-38 338 263
0.023652466 0.70999998 -0.028631933 1.7335685e-38 339 263
0.025037598 0.71399999 -0.028793238 2.0743308e-38 340 263
0.026289478 0.71399999 -0.028793238 2.2310992e-38 341 263
-0.040060159 0.71399999 -0.030045118 2.2771967e-38 288 264
-0.038753927 0.713 -0.030003037 2.3325138e-38 289 264
-0.037398599 0.71100003 -0.029918881 2.0648594e-38 290 264
-0.036101133 0.70999998 -0.029876797 1.6131008e-38 291 264
-0.034856264 0.70999998 -0.029876797 1.72298e-38 292 264
-0.033516716 0.708 -0.02979264 1.6492235e-38 293 264
-0.032229774 0.70700002 -0.029750559 1.4270189e-38 294 264
-0.030946331 0.70599997 -0.029708479 1.5744959e-38 295 264
-0.029624319 0.704 -0.029624319 1.5842195e-38 296 264
-0.028389972 0.704 -0.029624319 1.5934392e-38 297 264
-0.027117053 0.70300001 -0.029582238 1.5936555e-38 298 264
-0.025773998 0.69999999 -0.029455997 1.6397894e-38 299 264
-0.024546666 0.69999999 -0.029455997 1.6401134e-38 300 264
-0.023252707 0.69800001 -0.029371841 1.6124907e-38 301 264
-0.02199732 0.69700003 -0.02932976 1.5844347e-38 302 264
-0.020775247 0.69700003 -0.02932976 1.2801891e-38 303 264
-0.019581227 0.69800001 -0.029371841 1.3599993e-38 304 264
-0.018331099 0.69700003 -0.02932976 1.2032667e-38 305 264
-0.017109027 0.69700003 -0.02932976 1.3807787e-38 306 264
-0.015818574 0.69400001 -0.029203519 1.795659e-38 307 264
-0.01460176 0.69400001 -0.029203519 1.6416995e-38 308 264
-0.013384946 0.69400001 -0.029203519 1.6048211e-38 309 264
-0.012168133 0.69400001 -0.029203519 1.4946552e-38 310 264
-0.01095132 0.69400001 -0.029203519 1.2918248e-38 311 264
-0.0097345067 0.69400001 -0.029203519 1.3190522e-38 312 264
-0.0085176928 0.69400001 -0.029203519 1.3190522e-38 313 264
-0.0073008798 0.69400001 -0.029203519 1.1813699e-38 314 264
-0.0060840664 0.69400001 -0.029203519 1.1813699e-38 315 264
-0.0048672534 0.69400001 -0.029203519 1.1904096e-38 316 264
-0.0036504399 0.69400001 -0.029203519 1.1996292e-38 317 264
-0.00243012 0.69300002 -0.029161438 1.2547304e-38 318 264
-0.00121506 0.69300002 -0.029161438 1.2178162e-38 319 264
0 0.69300002 -0.029161438 1.2728812e-38 320 264
0.0012168133 0.69400001 -0.029203519 1.1715019e-38 321 264
0.0024336267 0.69400001 -0.029203519 9.9658245e-39 322 264
0.0036504399 0.69400001 -0.029203519 9.5966818e-39 323 264
0.0048672534 0.69400001 -0.029203519 9.9676406e-39 324 264
0.0061015999 0.69599998 -0.029287677 9.3222712e-39 325 264
0.0073219193 0.69599998 -0.029287677 8.6837359e-39 326 264
0.0085545136 0.69700003 -0.02932976 9.8822791e-39 327 264
0.0097765867 0.69700003 -0.02932976 1.2178515e-38 328 264
0.01101444 0.69800001 -0.029371841 1.1809733e-38 329 264
0.012238266 0.69800001 -0.029371841 1.2268543e-38 330 264
0.013500666 0.69999999 -0.029455997 1.2268543e-38 331 264
0.014727999 0.69999999 -0.029455997 1.2726998e-38 332 264
0.016023712 0.70300001 -0.029582238 1.2819193e-38 333 264
0.017256306 0.70300001 -0.029582238 1.3095061e-38 334 264
0.018515198 0.704 -0.029624319 1.3187257e-38 335 264
0.019805651 0.70599997 -0.029708479 1.2636954e-38 336 264
0.021043506 0.70599997 -0.029708479 1.2544757e-38 337 264
0.022344479 0.708 -0.02979264 1.3371626e-38 338 264
0.023652466 0.70999998 -0.029876797 1.7520429e-38 339 264
0.025037598 0.71399999 -0.030045118 2.0560349e-38 340 264
0.026289478 0.71399999 -0.030045118 2.1851087e-38 341 264
-0.040004052 0.713 -0.031253166 2.2588655e-38 288 265
-0.038753927 0.713 -0.031253166 2.3141826e-38 289 265
-0.037398599 0.71100003 -0.031165501 2.0005022e-38 290 265
-0.036101133 0.70999998 -0.031121666 1.5303045e-38 291 265
-0.034856264 0.70999998 -0.031121666 1.658695e-38 292 265
-0.033611398 0.70999998 -0.031121666 1.6494754e-38 293 265
-0.03227536 0.708 -0.031034 1.4918798e-38 294 265
-0.030946331 0.70599997 -0.030946331 1.3443667e-38 295 265
-0.029624319 0.704 -0.030858666 1.4813654e-38 296 265
-0.028389972 0.704 -0.030858666 1.5643055e-38 297 265
-0.027117053 0.70300001 -0.030814834 1.5008844e-38 298 265
-0.025884461 0.70300001 -0.030814834 1.6207387e-38 299 265
-0.024546666 0.69999999 -0.030683333 1.5846165e-38 300 265
-0.023252707 0.69800001 -0.030595668 1.6307143e-38 301 265
-0.02202888 0.69800001 -0.030595668 1.5574247e-38 302 265
-0.020805053 0.69800001 -0.030595668 1.3177161e-38 303 265
-0.019581227 0.69800001 -0.030595668 1.3327369e-38 304 265
-0.0183574 0.69800001 -0.030595668 1.1206869e-38 305 265
-0.017109027 0.69700003 -0.030551834 1.3347525e-38 306 265
-0.015886955 0.69700003 -0.030551834 1.7865111e-38 307 265
-0.014643839 0.69599998 -0.030507999 1.6692859e-38 308 265
-0.013423519 0.69599998 -0.030507999 1.6324075e-38 309 265
-0.0122032 0.69599998 -0.030507999 1.4946552e-38 310 265
-0.01095132 0.69400001 -0.030420333 1.2549466e-38 311 265
-0.0097345067 0.69400001 -0.030420333 1.2178891e-38 312 265
-0.0085176928 0.69400001 -0.030420333 1.2547315e-38 313 265
-0.0073008798 0.69400001 -0.030420333 1.1903746e-38 314 265
-0.0060840664 0.69400001 -0.030420333 1.1903746e-38 315 265
-0.0048672534 0.69400001 -0.030420333 1.1903746e-38 316 265
-0.0036504399 0.69400001 -0.030420333 1.1903746e-38 317 265
-0.0024336267 0.69400001 -0.030420333 1.2270005e-38 318 265
-0.0012168133 0.69400001 -0.030420333 1.2177809e-38 319 265
0 0.69400001 -0.030420333 1.1903017e-38 320 265
0.0012168133 0.69400001 -0.030420333 1.1995213e-38 321 265
0.0024406398 0.69599998 -0.030507999 1.2545503e-38 322 265
0.0036609597 0.69599998 -0.030507999 1.2084525e-38 323 265
0.0048812795 0.69599998 -0.030507999 1.2542629e-38 324 265
0.0061015999 0.69599998 -0.030507999 9.7767599e-39 325 265
0.00733244 0.69700003 -0.030551834 7.3983823e-39 326 265
0.0085545136 0.69700003 -0.030551834 9.8876643e-39 327 265
0.0097765867 0.69700003 -0.030551834 1.2729894e-38 328 265
0.01101444 0.69800001 -0.030595668 1.2268556e-38 329 265
0.012238266 0.69800001 -0.030595668 1.2451855e-38 330 265
0.013500666 0.69999999 -0.030683333 1.2544051e-38 331 265
0.014749039 0.70099998 -0.030727165 1.2726998e-38 332 265
0.016046507 0.704 -0.030858666 1.2911749e-38 333 265
0.017280852 0.704 -0.030858666 1.2912468e-38 334 265
0.018567799 0.70599997 -0.030946331 1.3004664e-38 335 265
0.019805651 0.70599997 -0.030946331 1.272915e-38 336 265
0.021073313 0.70700002 -0.030990168 1.3097931e-38 337 265
0.022407599 0.70999998 -0.031121666 1.392516e-38 338 265
0.023652466 0.70999998 -0.031121666 1.7612625e-38 339 265
0.025037598 0.71399999 -0.031296998 2.0468156e-38 340 265
0.026289478 0.71399999 -0.031296998 2.1943286e-38 341 265
-0.040004052 0.713 -0.032503292 2.2588652e-38 288 266
-0.038753927 0.713 -0.032503292 2.3141826e-38 289 266
-0.037398599 0.71100003 -0.032412119 2.0005013e-38 290 266
-0.036101133 0.70999998 -0.032366529 1.4749862e-38 291 266
-0.034856264 0.70999998 -0.032366529 1.5850817e-38 292 266
-0.033611398 0.70999998 -0.032366529 1.6588383e-38 293 266
-0.03227536 0.708 -0.03227536 1.556812e-38 294 266
-0.030990168 0.70700002 -0.032229774 1.3170674e-38 295 266
-0.029708479 0.70599997 -0.032184184 1.4166837e-38 296 266
-0.028389972 0.704 -0.032093015 1.3890249e-38 297 266
-0.027155625 0.704 -0.032093015 1.4539216e-38 298 266
-0.025884461 0.70300001 -0.032047424 1.5829954e-38 299 266
-0.024581732 0.70099998 -0.031956252 1.5469451e-38 300 266
-0.023319334 0.69999999 -0.031910665 1.6852385e-38 301 266
-0.02202888 0.69800001 -0.031819493 1.6580487e-38 302 266
-0.020805053 0.69800001 -0.031819493 1.5197553e-38 303 266
-0.019581227 0.69800001 -0.031819493 1.4065302e-38 304 266
-0.0183574 0.69800001 -0.031819493 1.1391629e-38 305 266
-0.017133573 0.69800001 -0.031819493 1.353084e-38 306 266
-0.015886955 0.69700003 -0.03177391 1.795659e-38 307 266
-0.01466488 0.69700003 -0.03177391 1.6785054e-38 308 266
-0.013442807 0.69700003 -0.03177391 1.6139685e-38 309 266
-0.0122032 0.69599998 -0.031728316 1.4854356e-38 310 266
-0.010982879 0.69599998 -0.031728316 1.2641661e-38 311 266
-0.0097345067 0.69400001 -0.031637147 1.254732e-38 312 266
-0.0085176928 0.69400001 -0.031637147 1.2086342e-38 313 266
-0.0073008798 0.69400001 -0.031637147 1.1352014e-38 314 266
-0.0061015999 0.69599998 -0.031728316 1.1536405e-38 315 266
-0.0048812795 0.69599998 -0.031728316 1.1718999e-38 316 266
-0.0036504399 0.69400001 -0.031637147 1.1718999e-38 317 266
-0.0024336267 0.69400001 -0.031637147 1.1994863e-38 318 266
-0.0012203199 0.69599998 -0.031728316 1.1902667e-38 319 266
0 0.69599998 -0.031728316 1.1903746e-38 320 266
0.0012203199 0.69599998 -0.031728316 1.1719355e-38 321 266
0.0024406398 0.69599998 -0.031728316 1.2177809e-38 322 266
0.0036609597 0.69599998 -0.031728316 1.1901582e-38 323 266
0.0048812795 0.69599998 -0.031728316 1.3188704e-38 324 266
0.0061015999 0.69599998 -0.031728316 1.1990161e-38 325 266
0.00733244 0.69700003 -0.03177391 1.024672e-38 326 266
0.0085545136 0.69700003 -0.03177391 1.107684e-38 327 266
0.0097765867 0.69700003 -0.03177391 1.125908e-38 328 266
0.01101444 0.69800001 -0.031819493 1.1351276e-38 329 266
0.012273333 0.69999999 -0.031910665 1.1810086e-38 330 266
0.013558527 0.70300001 -0.032047424 1.1810086e-38 331 266
0.014812159 0.704 -0.032093015 1.2544407e-38 332 266
0.016046507 0.704 -0.032093015 1.27288e-38 333 266
0.017280852 0.704 -0.032093015 1.2912112e-38 334 266
0.018567799 0.70599997 -0.032184184 1.2819916e-38 335 266
0.019833706 0.70700002 -0.032229774 1.2728797e-38 336 266
0.021103119 0.708 -0.03227536 1.3281971e-38 337 266
0.022407599 0.70999998 -0.032366529 1.3927679e-38 338 266
0.023685781 0.71100003 -0.032412119 1.7246722e-38 339 266
0.025037598 0.71399999 -0.032548878 2.0743664e-38 340 266
0.026289478 0.71399999 -0.032548878 2.2218794e-38 341 266
-0.040004052 0.713 -0.033753417 2.2588655e-38 288 267
-0.038753927 0.713 -0.033753417 2.323402e-38 289 267
-0.037503798 0.713 -0.033753417 2.0465988e-38 290 267
-0.036151983 0.71100003 -0.033658739 1.493389e-38 291 267
-0.034856264 0.70999998 -0.033611398 1.5756818e-38 292 267
-0.033611398 0.70999998 -0.033611398 1.6679133e-38 293 267
-0.03227536 0.708 -0.033516716 1.6214569e-38 294 267
-0.030990168 0.70700002 -0.033469379 1.4463211e-38 295 267
-0.029708479 0.70599997 -0.033422034 1.5094908e-38 296 267
-0.028389972 0.704 -0.03332736 1.2790376e-38 297 267
-0.027155625 0.704 -0.03332736 1.3883409e-38 298 267
-0.025884461 0.70300001 -0.033280019 1.2685225e-38 299 267
-0.024651866 0.70300001 -0.033280019 1.3509602e-38 300 267
-0.023319334 0.69999999 -0.033137999 1.4431198e-38 301 267
-0.02202888 0.69800001 -0.033043321 1.4626389e-38 302 267
-0.020805053 0.69800001 -0.033043321 1.4995172e-38 303 267
-0.019581227 0.69800001 -0.033043321 1.4153532e-38 304 267
-0.0183574 0.69800001 -0.033043321 1.2494371e-38 305 267
-0.017133573 0.69800001 -0.033043321 1.3622317e-38 306 267
-0.015909746 0.69800001 -0.033043321 1.8139903e-38 307 267
-0.01466488 0.69700003 -0.03299598 1.6692859e-38 308 267
-0.013442807 0.69700003 -0.03299598 1.6324075e-38 309 267
-0.0122032 0.69599998 -0.032948639 1.476324e-38 310 267
-0.010982879 0.69599998 -0.032948639 1.2827132e-38 311 267
-0.0097625591 0.69599998 -0.032948639 1.254732e-38 312 267
-0.0085422397 0.69599998 -0.032948639 1.1901951e-38 313 267
-0.0073219193 0.69599998 -0.032948639 1.2085989e-38 314 267
-0.0061015999 0.69599998 -0.032948639 1.1993793e-38 315 267
-0.0048812795 0.69599998 -0.032948639 1.1443494e-38 316 267
-0.0036609597 0.69599998 -0.032948639 1.1258742e-38 317 267
-0.0024406398 0.69599998 -0.032948639 1.208526e-38 318 267
-0.0012220733 0.69700003 -0.03299598 1.2269652e-38 319 267
0 0.69700003 -0.03299598 1.1628235e-38 320 267
0.0012220733 0.69700003 -0.03299598 1.153604e-38 321 267
0.0024441467 0.69700003 -0.03299598 1.1534594e-38 322 267
0.00366622 0.69700003 -0.03299598 1.2179963e-38 323 267
0.0048882933 0.69700003 -0.03299598 1.3466368e-38 324 267
0.0061103669 0.69700003 -0.03299598 1.2544051e-38 325 267
0.0073429602 0.69800001 -0.033043321 1.1716093e-38 326 267
0.0085667865 0.69800001 -0.033043321 1.134731e-38 327 267
0.0097906133 0.69800001 -0.033043321 1.1440597e-38 328 267
0.011045999 0.69999999 -0.033137999 1.1717184e-38 329 267
0.012273333 0.69999999 -0.033137999 1.1901929e-38 330 267
0.013558527 0.70300001 -0.033280019 1.1809733e-38 331 267
0.014812159 0.704 -0.03332736 1.2636251e-38 332 267
0.016092092 0.70599997 -0.033422034 1.2728447e-38 333 267
0.017329946 0.70599997 -0.033422034 1.2636251e-38 334 267
0.018594101 0.70700002 -0.033469379 1.2636251e-38 335 267
0.01986176 0.708 -0.033516716 1.328125e-38 336 267
0.021162732 0.70999998 -0.033611398 1.3557837e-38 337 267
0.022439159 0.71100003 -0.033658739 1.3465619e-38 338 267
0.023752406 0.713 -0.033753417 1.7430031e-38 339 267
0.025037598 0.71399999 -0.033800758 2.0927336e-38 340 267
0.026289478 0.71399999 -0.033800758 2.249466e-38 341 267
-0.040004052 0.713 -0.035003547 2.2771967e-38 288 268
-0.038753927 0.713 -0.035003547 2.3417333e-38 289 268
-0.037503798 0.713 -0.035003547 2.083621e-38 290 268
-0.036151983 0.71100003 -0.034905359 1.5581059e-38 291 268
-0.034856264 0.70999998 -0.034856264 1.6221389e-38 292 268
-0.033611398 0.70999998 -0.034856264 1.705151e-38 293 268
-0.03227536 0.708 -0.034758076 1.6771696e-38 294 268
-0.030990168 0.70700002 -0.034708988 1.455864e-38 295 268
-0.029750559 0.70700002 -0.034708988 1.3720974e-38 296 268
-0.028389972 0.704 -0.034561705 1.3259996e-38 297 268
-0.027155625 0.704 -0.034561705 1.2792541e-38 298 268
-0.025884461 0.70300001 -0.034512613 1.1409606e-38 299 268
-0.024651866 0.70300001 -0.034512613 1.2226769e-38 300 268
-0.023352645 0.70099998 -0.034414422 1.1673595e-38 301 268
-0.022091998 0.69999999 -0.034365334 1.3048967e-38 302 268
-0.020864666 0.69999999 -0.034365334 1.3970923e-38 303 268
-0.019637333 0.69999999 -0.034365334 1.3693611e-38 304 268
-0.018409999 0.69999999 -0.034365334 1.2587623e-38 305 268
-0.017133573 0.69800001 -0.034267146 1.3162412e-38 306 268
-0.015909746 0.69800001 -0.034267146 1.7956943e-38 307 268
-0.01468592 0.69800001 -0.034267146 1.6692861e-38 308 268
-0.013462093 0.69800001 -0.034267146 1.6323719e-38 309 268
-0.012220734 0.69700003 -0.034218054 1.5038751e-38 310 268
-0.01099866 0.69700003 -0.034218054 1.3194838e-38 311 268
-0.0097625591 0.69599998 -0.034168959 1.2548039e-38 312 268
-0.0085422397 0.69599998 -0.034168959 1.171828e-38 313 268
-0.0073219193 0.69599998 -0.034168959 1.1994509e-38 314 268
-0.0061103669 0.69700003 -0.034218054 1.1902314e-38 315 268
-0.0048953067 0.69800001 -0.034267146 1.190267e-38 316 268
-0.00366622 0.69700003 -0.034218054 1.1994865e-38 317 268
-0.0024441467 0.69700003 -0.034218054 1.1903743e-38 318 268
-0.0012238267 0.69800001 -0.034267146 1.1903743e-38 319 268
0 0.69800001 -0.034267146 1.1812622e-38 320 268
0.0012238267 0.69800001 -0.034267146 1.1812622e-38 321 268
0.0024476533 0.69800001 -0.034267146 1.1995569e-38 322 268
0.00366622 0.69700003 -0.034218054 1.2548384e-38 323 268
0.0048882933 0.69700003 -0.034218054 1.3099027e-38 324 268
0.006119133 0.69800001 -0.034267146 1.2453658e-38 325 268
0.0073429602 0.69800001 -0.034267146 1.2083796e-38 326 268
0.0085667865 0.69800001 -0.034267146 1.2083796e-38 327 268
0.0098186666 0.69999999 -0.034365334 1.0891377e-38 328 268
0.011045999 0.69999999 -0.034365334 1.1259799e-38 329 268
0.012290866 0.70099998 -0.034414422 1.2085597e-38 330 268
0.013577812 0.704 -0.034561705 1.1993401e-38 331 268
0.014854239 0.70599997 -0.034659892 1.2084875e-38 332 268
0.016092092 0.70599997 -0.034659892 1.2084875e-38 333 268
0.017354494 0.70700002 -0.034708988 1.2543698e-38 334 268
0.0186204 0.708 -0.034758076 1.2912841e-38 335 268
0.019917866 0.70999998 -0.034856264 1.3191576e-38 336 268
0.021162732 0.70999998 -0.034856264 1.2730598e-38 337 268
0.022439159 0.71100003 -0.034905359 1.2913166e-38 338 268
0.023752406 0.713 -0.035003547 1.7062328e-38 339 268
0.025037598 0.71399999 -0.035052639 2.0928055e-38 340 268
0.026289478 0.71399999 -0.035052639 2.2218794e-38 341 268
-0.038808275 0.71399999 -0.036304519 2.3141106e-38 289 269
-0.037503798 0.713 -0.036253672 2.1020606e-38 290 269
-0.036151983 0.71100003 -0.036151983 1.7424618e-38 291 269
-0.034905359 0.71100003 -0.036151983 1.714552e-38 292 269
-0.033611398 0.70999998 -0.036101133 1.7513942e-38 293 269
-0.03227536 0.708 -0.03599944 1.7329551e-38 294 269
-0.031034 0.708 -0.03599944 1.4932824e-38 295 269
-0.029750559 0.70700002 -0.035948593 1.2900221e-38 296 269
-0.028389972 0.704 -0.035796054 1.5020719e-38 297 269
-0.027155625 0.704 -0.035796054 1.5945197e-38 298 269
-0.025884461 0.70300001 -0.035745207 1.4746654e-38 299 269
-0.024651866 0.70300001 -0.035745207 1.4002602e-38 300 269
-0.023352645 0.70099998 -0.035643511 1.1974299e-38 301 269
-0.022091998 0.69999999 -0.035592664 1.2693856e-38 302 269
-0.020864666 0.69999999 -0.035592664 1.1218724e-38 303 269
-0.019637333 0.69999999 -0.035592664 1.2405003e-38 304 269
-0.018409999 0.69999999 -0.035592664 1.1390853e-38 305 269
-0.017133573 0.69800001 -0.035490975 1.2518465e-38 306 269
-0.015909746 0.69800001 -0.035490975 1.7865811e-38 307 269
-0.01468592 0.69800001 -0.035490975 1.6692859e-38 308 269
-0.013462093 0.69800001 -0.035490975 1.6324075e-38 309 269
-0.012238266 0.69800001 -0.035490975 1.5314258e-38 310 269
-0.01099866 0.69700003 -0.035440128 1.337815e-38 311 269
-0.0097765867 0.69700003 -0.035440128 1.2732428e-38 312 269
-0.0085545136 0.69700003 -0.035440128 1.1902667e-38 313 269
-0.00733244 0.69700003 -0.035440128 1.1902314e-38 314 269
-0.006119133 0.69800001 -0.035490975 1.2179259e-38 315 269
-0.0048953067 0.69800001 -0.035490975 1.1995944e-38 316 269
-0.0036714801 0.69800001 -0.035490975 1.2272173e-38 317 269
-0.0024476533 0.69800001 -0.035490975 1.1813347e-38 318 269
-0.0012238267 0.69800001 -0.035490975 1.172115e-38 319 269
0 0.69800001 -0.035490975 1.1904815e-38 320 269
0.0012238267 0.69800001 -0.035490975 1.1997011e-38 321 269
0.0024476533 0.69800001 -0.035490975 1.2455468e-38 322 269
0.0036714801 0.69800001 -0.035490975 1.2547665e-38 323 269
0.0048953067 0.69800001 -0.035490975 1.273133e-38 324 269
0.006119133 0.69800001 -0.035490975 1.2547298e-38 325 269
0.0073639993 0.69999999 -0.035592664 1.318907e-38 326 269
0.0085913334 0.69999999 -0.035592664 1.2543701e-38 327 269
0.0098186666 0.69999999 -0.035592664 1.1809736e-38 328 269
0.011061779 0.70099998 -0.035643511 1.1901931e-38 329 269
0.012325933 0.70300001 -0.035745207 1.2177797e-38 330 269
0.013577812 0.704 -0.035796054 1.2085241e-38 331 269
0.014854239 0.70599997 -0.035897743 1.2452936e-38 332 269
0.016114887 0.70700002 -0.035948593 1.2176348e-38 333 269
0.017354494 0.70700002 -0.035948593 1.1715723e-38 334 269
0.018672999 0.70999998 -0.036101133 1.2176342e-38 335 269
0.019917866 0.70999998 -0.036101133 1.2546922e-38 336 269
0.021192541 0.71100003 -0.036151983 1.1993749e-38 337 269
0.022439159 0.71100003 -0.036151983 1.2452546e-38 338 269
0.023752406 0.713 -0.036253672 1.7062328e-38 339 269
0.025037598 0.71399999 -0.036304519 2.074474e-38 340 269
0.026363119 0.71600002 -0.036406212 2.2035479e-38 341 269
0.027618507 0.71600002 -0.036406212 2.2125876e-38 342 269
-0.038753927 0.713 -0.037503798 2.2865238e-38 289 270
-0.037398599 0.71100003 -0.037398599 2.1389033e-38 290 270
-0.036151983 0.71100003 -0.037398599 1.871536e-38 291 270
-0.034856264 0.70999998 -0.037345998 1.7517548e-38 292 270
-0.033611398 0.70999998 -0.037345998 1.7148407e-38 293 270
-0.03227536 0.708 -0.0372408 1.5954182e-38 294 270
-0.031034 0.708 -0.0372408 1.5216617e-38 295 270
-0.029750559 0.70700002 -0.037188202 1.4293235e-38 296 270
-0.028389972 0.704 -0.037030395 1.5215192e-38 297 270
-0.027155625 0.704 -0.037030395 1.6596693e-38 298 270
-0.025884461 0.70300001 -0.036977798 1.539851e-38 299 270
-0.024651866 0.70300001 -0.036977798 1.3284838e-38 300 270
-0.023352645 0.70099998 -0.036872596 1.3469588e-38 301 270
-0.022123558 0.70099998 -0.036872596 1.4654809e-38 302 270
-0.020894472 0.70099998 -0.036872596 1.2534308e-38 303 270
-0.019665385 0.70099998 -0.036872596 1.2242939e-38 304 270
-0.018409999 0.69999999 -0.036819998 1.0860003e-38 305 270
-0.017182667 0.69999999 -0.036819998 1.2245121e-38 306 270
-0.015955333 0.69999999 -0.036819998 1.7131849e-38 307 270
-0.01468592 0.69800001 -0.0367148 1.6783975e-38 308 270
-0.013462093 0.69800001 -0.0367148 1.6415551e-38 309 270
-0.012238266 0.69800001 -0.0367148 1.5406454e-38 310 270
-0.01101444 0.69800001 -0.0367148 1.2917172e-38 311 270
-0.0097906133 0.69800001 -0.0367148 1.1814068e-38 312 270
-0.0085667865 0.69800001 -0.0367148 1.1906264e-38 313 270
-0.0073429602 0.69800001 -0.0367148 1.1997381e-38 314 270
-0.006119133 0.69800001 -0.0367148 1.2274326e-38 315 270
-0.0049093333 0.69999999 -0.036819998 1.2364002e-38 316 270
-0.0036714801 0.69800001 -0.0367148 1.2087414e-38 317 270
-0.0024476533 0.69800001 -0.0367148 1.135309e-38 318 270
-0.0012238267 0.69800001 -0.0367148 1.1260895e-38 319 270
0 0.69800001 -0.0367148 1.1811548e-38 320 270
0.0012238267 0.69800001 -0.0367148 1.1903743e-38 321 270
0.0024476533 0.69800001 -0.0367148 1.2545515e-38 322 270
0.0036714801 0.69800001 -0.0367148 1.2269289e-38 323 270
0.0048953067 0.69800001 -0.0367148 1.2177809e-38 324 270
0.006119133 0.69800001 -0.0367148 1.23622e-38 325 270
0.0073639993 0.69999999 -0.036819998 1.273026e-38 326 270
0.0085913334 0.69999999 -0.036819998 1.2361837e-38 327 270
0.0098326923 0.70099998 -0.036872596 1.2270355e-38 328 270
0.011061779 0.70099998 -0.036872596 1.2270355e-38 329 270
0.012343466 0.704 -0.037030395 1.2361106e-38 330 270
0.013616386 0.70599997 -0.037135597 1.1992682e-38 331 270
0.01487528 0.70700002 -0.037188202 1.0980325e-38 332 270
0.016114887 0.70700002 -0.037188202 1.0427152e-38 333 270
0.017379038 0.708 -0.0372408 9.5999048e-39 334 270
0.018672999 0.70999998 -0.037345998 1.0521863e-38 335 270
0.01994592 0.71100003 -0.037398599 1.2269615e-38 336 270
0.021192541 0.71100003 -0.037398599 1.1808638e-38 337 270
0.022502279 0.713 -0.037503798 1.2451827e-38 338 270
0.02378572 0.71399999 -0.037556399 1.7522227e-38 339 270
0.025037598 0.71399999 -0.037556399 2.092913e-38 340 270
0.026363119 0.71600002 -0.037661601 2.2219868e-38 341 270
0.027618507 0.71600002 -0.037661601 2.1943283e-38 342 270
-0.038753927 0.713 -0.038753927 2.3048554e-38 289 271
-0.037398599 0.71100003 -0.038645219 2.1022055e-38 290 271
-0.036151983 0.71100003 -0.038645219 1.8809e-38 291 271
-0.034856264 0.70999998 -0.038590867 1.687506e-38 292 271
-0.033611398 0.70999998 -0.038590867 1.641444e-38 293 271
-0.03227536 0.708 -0.038482159 1.5311331e-38 294 271
-0.031034 0.708 -0.038482159 1.5034743e-38 295 271
-0.029750559 0.70700002 -0.038427804 1.5495375e-38 296 271
-0.028470624 0.70599997 -0.038373452 1.5679406e-38 297 271
-0.027155625 0.704 -0.038264744 1.5217006e-38 298 271
-0.025884461 0.70300001 -0.038210396 1.4756027e-38 299 271
-0.024651866 0.70300001 -0.038210396 1.3471052e-38 300 271
-0.023419274 0.70300001 -0.038210396 1.5038379e-38 301 271
-0.022123558 0.70099998 -0.038101684 1.650847e-38 302 271
-0.020894472 0.70099998 -0.038101684 1.6139688e-38 303 271
-0.019665385 0.70099998 -0.038101684 1.5210872e-38 304 271
-0.018436298 0.70099998 -0.038101684 1.2998177e-38 305 271
-0.017182667 0.69999999 -0.038047329 1.1797839e-38 306 271
-0.015955333 0.69999999 -0.038047329 1.4563708e-38 307 271
-0.014727999 0.69999999 -0.038047329 1.6233322e-38 308 271
-0.013500666 0.69999999 -0.038047329 1.5957094e-38 309 271
-0.012238266 0.69800001 -0.037938625 1.5407176e-38 310 271
-0.01101444 0.69800001 -0.037938625 1.2917895e-38 311 271
-0.0097906133 0.69800001 -0.037938625 1.1169421e-38 312 271
-0.0085667865 0.69800001 -0.037938625 1.181479e-38 313 271
-0.0073429602 0.69800001 -0.037938625 1.2181409e-38 314 271
-0.006119133 0.69800001 -0.037938625 1.2273605e-38 315 271
-0.0049093333 0.69999999 -0.038047329 1.2455471e-38 316 271
-0.0036714801 0.69800001 -0.037938625 1.1533875e-38 317 271
-0.0024476533 0.69800001 -0.037938625 1.1167253e-38 318 271
-0.0012273333 0.69999999 -0.038047329 1.1443841e-38 319 271
0 0.69800001 -0.037938625 1.2269289e-38 320 271
0.0012238267 0.69800001 -0.037938625 1.2177093e-38 321 271
0.0024476533 0.69800001 -0.037938625 1.2359686e-38 322 271
0.0036714801 0.69800001 -0.037938625 1.2267489e-38 323 271
0.0048953067 0.69800001 -0.037938625 1.1809752e-38 324 271
0.0061366665 0.69999999 -0.038047329 1.1717555e-38 325 271
0.0073639993 0.69999999 -0.038047329 1.2362556e-38 326 271
0.0085913334 0.69999999 -0.038047329 1.291573e-38 327 271
0.0098326923 0.70099998 -0.038101684 1.3374182e-38 328 271
0.011061779 0.70099998 -0.038101684 1.2268193e-38 329 271
0.012343466 0.704 -0.038264744 1.0796304e-38 330 271
0.013616386 0.70599997 -0.038373452 9.7821507e-39 331 271
0.01487528 0.70700002 -0.038427804 9.964391e-39 332 271
0.01613768 0.708 -0.038482159 9.964391e-39 333 271
0.017428132 0.70999998 -0.038590867 1.03346e-38 334 271
0.0186993 0.71100003 -0.038645219 1.1256915e-38 335 271
0.01994592 0.71100003 -0.038645219 1.2452206e-38 336 271
0.021252153 0.713 -0.038753927 1.2175979e-38 337 271
0.022533838 0.71399999 -0.038808275 1.291065e-38 338 271
0.023852346 0.71600002 -0.038916986 1.779702e-38 339 271
0.0251428 0.71700001 -0.038971342 2.1113169e-38 340 271
0.02639994 0.71700001 -0.038971342 2.2311711e-38 341 271
-0.038808275 0.71399999 -0.040060159 2.3049273e-38 289 272
-0.037556399 0.71399999 -0.040060159 2.0193739e-38 290 272
-0.036151983 0.71100003 -0.039891839 1.7058728e-38 291 272
-0.034905359 0.71100003 -0.039891839 1.4942917e-38 292 272
-0.033611398 0.70999998 -0.039835732 1.5496091e-38 293 272
-0.032366529 0.70999998 -0.039835732 1.6784312e-38 294 272
-0.031034 0.708 -0.039723519 1.5401377e-38 295 272
-0.02979264 0.708 -0.039723519 1.4020611e-38 296 272
-0.028510952 0.70700002 -0.039667413 1.4112806e-38 297 272
-0.027232772 0.70599997 -0.039611302 1.4112103e-38 298 272
-0.02592128 0.704 -0.039499093 1.4019907e-38 299 272
-0.024651866 0.70300001 -0.039442986 1.3468545e-38 300 272
-0.023419274 0.70300001 -0.039442986 1.3745491e-38 301 272
-0.02218668 0.70300001 -0.039442986 1.4025316e-38 302 272
-0.020954086 0.70300001 -0.039442986 1.476324e-38 303 272
-0.019721493 0.70300001 -0.039442986 1.5866695e-38 304 272
-0.018488899 0.70300001 -0.039442986 1.5497911e-38 305 272
-0.017207211 0.70099998 -0.039330769 1.4940419e-38 306 272
-0.015978126 0.70099998 -0.039330769 1.5493592e-38 307 272
-0.014727999 0.69999999 -0.039274666 1.5406088e-38 308 272
-0.013500666 0.69999999 -0.039274666 1.5590119e-38 309 272
-0.012273333 0.69999999 -0.039274666 1.5407176e-38 310 272
-0.01101444 0.69800001 -0.039162453 1.3471067e-38 311 272
-0.0097906133 0.69800001 -0.039162453 1.1904462e-38 312 272
-0.0085667865 0.69800001 -0.039162453 1.2457636e-38 313 272
-0.0073429602 0.69800001 -0.039162453 1.337635e-38 314 272
-0.0061366665 0.69999999 -0.039274666 1.35611e-38 315 272
-0.0049093333 0.69999999 -0.039274666 1.3376705e-38 316 272
-0.0036819996 0.69999999 -0.039274666 1.3192314e-38 317 272
-0.0024546667 0.69999999 -0.039274666 1.3100837e-38 318 272
-0.0012273333 0.69999999 -0.039274666 1.3100837e-38 319 272
0 0.69800001 -0.039162453 1.3468182e-38 320 272
0.0012238267 0.69800001 -0.039162453 1.2822813e-38 321 272
0.0024476533 0.69800001 -0.039162453 1.2635545e-38 322 272
0.0036714801 0.69800001 -0.039162453 1.2820295e-38 323 272
0.0048953067 0.69800001 -0.039162453 1.2364709e-38 324 272
0.0061366665 0.69999999 -0.039274666 1.107397e-38 325 272
0.0073639993 0.69999999 -0.039274666 9.1407456e-39 326 272
0.0086036054 0.70099998 -0.039330769 9.2329412e-39 327 272
0.0098607466 0.70300001 -0.039442986 1.0149152e-38 328 272
0.01109334 0.70300001 -0.039442986 9.6885327e-39 329 272
0.012343466 0.704 -0.039499093 9.0474793e-39 330 272
0.013616386 0.70599997 -0.039611302 9.139675e-39 331 272
0.01487528 0.70700002 -0.039667413 1.0701956e-38 332 272
0.01613768 0.708 -0.039723519 1.1624272e-38 333 272
0.017428132 0.70999998 -0.039835732 1.2818477e-38 334 272
0.0186993 0.71100003 -0.039891839 1.2818477e-38 335 272
0.020002026 0.713 -0.040004052 1.3002859e-38 336 272
0.021281958 0.71399999 -0.040060159 1.3002859e-38 337 272
0.022596961 0.71600002 -0.040172372 1.3095044e-38 338 272
0.02388566 0.71700001 -0.040228479 1.7797023e-38 339 272
0.0251428 0.71700001 -0.040228479 2.1205368e-38 340 272
0.02639994 0.71700001 -0.040228479 2.2035128e-38 341 272
-0.039080046 0.71899998 -0.041601337 2.3141109e-38 289 273
-0.037556399 0.71399999 -0.041312039 1.9732401e-38 290 273
-0.036151983 0.71100003 -0.041138459 1.5214815e-38 291 273
-0.034905359 0.71100003 -0.041138459 1.3561785e-38 292 273
-0.033611398 0.70999998 -0.041080594 1.4575577e-38 293 273
-0.032366529 0.70999998 -0.041080594 1.6416618e-38 294 273
-0.031121666 0.70999998 -0.041080594 1.5956e-38 295 273
-0.02979264 0.708 -0.040964879 1.4571636e-38 296 273
-0.028510952 0.70700002 -0.040907022 1.4202854e-38 297 273
-0.027232772 0.70599997 -0.040849157 1.3468898e-38 298 273
-0.02592128 0.704 -0.040733438 1.3745844e-38 299 273
-0.024686933 0.704 -0.040733438 1.4572009e-38 300 273
-0.023419274 0.70300001 -0.040675577 1.3834442e-38 301 273
-0.02218668 0.70300001 -0.040675577 1.26431e-38 302 273
-0.020954086 0.70300001 -0.040675577 1.3565416e-38 303 273
-0.019749546 0.704 -0.040733438 1.5039113e-38 304 273
-0.018488899 0.70300001 -0.040675577 1.596143e-38 305 273
-0.017256306 0.70300001 -0.040675577 1.5959625e-38 306 273
-0.015978126 0.70099998 -0.040559858 1.5683398e-38 307 273
-0.014727999 0.69999999 -0.040502001 1.5132018e-38 308 273
-0.013500666 0.69999999 -0.040502001 1.5224214e-38 309 273
-0.012273333 0.69999999 -0.040502001 1.5774162e-38 310 273
-0.01101444 0.69800001 -0.040386278 1.3008291e-38 311 273
-0.0097906133 0.69800001 -0.040386278 9.9719538e-39 312 273
-0.0085667865 0.69800001 -0.040386278 1.0801356e-38 313 273
-0.0073639993 0.69999999 -0.040502001 1.2089932e-38 314 273
-0.0061366665 0.69999999 -0.040502001 1.2458716e-38 315 273
-0.0049093333 0.69999999 -0.040502001 1.3008645e-38 316 273
-0.0036819996 0.69999999 -0.040502001 1.3285233e-38 317 273
-0.0024546667 0.69999999 -0.040502001 1.4294346e-38 318 273
-0.0012273333 0.69999999 -0.040502001 1.420215e-38 319 273
0 0.69999999 -0.040502001 1.3928803e-38 320 273
0.0012273333 0.69999999 -0.040502001 1.2915011e-38 321 273
0.0024546667 0.69999999 -0.040502001 1.171432e-38 322 273
0.0036819996 0.69999999 -0.040502001 1.2174938e-38 323 273
0.0049093333 0.69999999 -0.040502001 1.1537109e-38 324 273
0.0061454331 0.70099998 -0.040559858 1.0338566e-38 325 273
0.0073745195 0.70099998 -0.040559858 1.2310085e-39 326 273
0.0086036054 0.70099998 -0.040559858 1.7841823e-39 327 273
0.0098607466 0.70300001 -0.040675577 4.8101293e-39 328 273
0.011109119 0.704 -0.040733438 5.6402487e-39 329 273
0.012378532 0.70599997 -0.040849157 8.9535055e-39 330 273
0.013616386 0.70599997 -0.040849157 1.0428275e-38 331 273
0.01487528 0.70700002 -0.040907022 1.1808657e-38 332 273
0.01613768 0.708 -0.040964879 1.2362191e-38 333 273
0.017428132 0.70999998 -0.041080594 1.2726635e-38 334 273
0.0186993 0.71100003 -0.041138459 1.2726635e-38 335 273
0.020030079 0.71399999 -0.041312039 1.2358572e-38 336 273
0.021341572 0.71600002 -0.041427758 1.2727354e-38 337 273
0.02262852 0.71700001 -0.041485619 1.3187604e-38 338 273
0.02388566 0.71700001 -0.041485619 1.770519e-38 339 273
0.0251428 0.71700001 -0.041485619 2.0930576e-38 340 273
0.02647358 0.71899998 -0.041601337 2.1852532e-38 341 273
-0.039080046 0.71899998 -0.042861983 2.3141826e-38 289 274
-0.037714198 0.71700001 -0.042742759 1.9456174e-38 290 274
-0.036304519 0.71399999 -0.042563915 1.364785e-38 291 274
-0.035003547 0.713 -0.042504307 1.1626042e-38 292 274
-0.033753417 0.713 -0.042504307 1.3469955e-38 293 274
-0.032412119 0.71100003 -0.042385083 1.4667072e-38 294 274
-0.031165501 0.71100003 -0.042385083 1.512805e-38 295 274
-0.029876797 0.70999998 -0.042325463 1.650415e-38 296 274
-0.02855128 0.708 -0.042206239 1.6135369e-38 297 274
-0.027271347 0.70700002 -0.042146627 1.4023857e-38 298 274
-0.025994917 0.70599997 -0.042087011 1.3931662e-38 299 274
-0.024686933 0.704 -0.041967787 1.5307406e-38 300 274
-0.023452586 0.704 -0.041967787 1.438545e-38 301 274
-0.022218239 0.704 -0.041967787 1.1812622e-38 302 274
-0.020983893 0.704 -0.041967787 1.1812622e-38 303 274
-0.019749546 0.704 -0.041967787 1.2647066e-38 304 274
-0.018515198 0.704 -0.041967787 1.3937805e-38 305 274
-0.017256306 0.70300001 -0.041908171 1.5039467e-38 306 274
-0.016023712 0.70300001 -0.041908171 1.5131662e-38 307 274
-0.014727999 0.69999999 -0.041729331 1.494835e-38 308 274
-0.013500666 0.69999999 -0.041729331 1.5040546e-38 309 274
-0.012273333 0.69999999 -0.041729331 1.5774162e-38 310 274
-0.011045999 0.69999999 -0.041729331 1.1994141e-38 311 274
-0.0098186666 0.69999999 -0.041729331 7.7632243e-39 312 274
-0.0085913334 0.69999999 -0.041729331 6.4724855e-39 313 274
-0.0073639993 0.69999999 -0.041729331 3.5344699e-39 314 274
-0.0061366665 0.69999999 -0.041729331 3.7188612e-39 315 274
-0.0049093333 0.69999999 -0.041729331 5.9189586e-39 316 274
-0.0036819996 0.69999999 -0.041729331 7.1175018e-39 317 274
-0.0024546667 0.69999999 -0.041729331 1.0049048e-38 318 274
-0.0012273333 0.69999999 -0.041729331 1.0971363e-38 319 274
0 0.69999999 -0.041729331 1.217961e-38 320 274
0.0012273333 0.69999999 -0.041729331 1.134949e-38 321 274
0.0024546667 0.69999999 -0.041729331 9.1335555e-39 322 274
0.0036819996 0.69999999 -0.041729331 9.6867293e-39 323 274
0.0049163462 0.70099998 -0.041788943 1.098179e-38 324 274
0.0061454331 0.70099998 -0.041788943 1.1627159e-38 325 274
0.0073745195 0.70099998 -0.041788943 8.8688474e-39 326 274
0.0086281532 0.70300001 -0.041908171 9.2376285e-39 327 274
0.0098747732 0.704 -0.041967787 1.1442045e-38 328 274
0.011109119 0.704 -0.041967787 1.2087414e-38 329 274
0.012378532 0.70599997 -0.042087011 1.2821011e-38 330 274
0.013616386 0.70599997 -0.042087011 1.2360033e-38 331 274
0.01487528 0.70700002 -0.042146627 1.19012e-38 332 274
0.016183265 0.70999998 -0.042325463 1.1993754e-38 333 274
0.01745268 0.71100003 -0.042385083 1.2726282e-38 334 274
0.018751899 0.713 -0.042504307 1.254189e-38 335 274
0.020030079 0.71399999 -0.042563915 1.2541171e-38 336 274
0.021341572 0.71600002 -0.042683143 1.3093985e-38 337 274
0.02262852 0.71700001 -0.042742759 1.3280878e-38 338 274
0.02388566 0.71700001 -0.042742759 1.724529e-38 339 274
0.0251428 0.71700001 -0.042742759 2.0838024e-38 340 274
0.02647358 0.71899998 -0.042861983 2.2220959e-38 341 274
0.027734226 0.71899998 -0.042861983 2.2311708e-38 342 274
-0.040789545 0.727 -0.044613566 2.2680848e-38 288 275
-0.039134402 0.72000003 -0.044183999 2.3326215e-38 289 275
-0.037819397 0.71899998 -0.044122629 2.0099739e-38 290 275
-0.036558751 0.71899998 -0.044122629 1.4199219e-38 291 275
-0.035150826 0.71600002 -0.043938532 1.1530612e-38 292 275
-0.033800758 0.71399999 -0.043815799 1.2083427e-38 293 275
-0.032548878 0.71399999 -0.043815799 1.3098677e-38 294 275
-0.031165501 0.71100003 -0.043631699 1.4204664e-38 295 275
-0.029876797 0.70999998 -0.043570329 1.5768028e-38 296 275
-0.02855128 0.708 -0.043447599 1.5583636e-38 297 275
-0.027271347 0.70700002 -0.043386232 1.4207167e-38 298 275
-0.025994917 0.70599997 -0.043324865 1.4299362e-38 299 275
-0.024686933 0.704 -0.043202132 1.5585435e-38 300 275
-0.023452586 0.704 -0.043202132 1.5124457e-38 301 275
-0.022218239 0.704 -0.043202132 1.2825344e-38 302 275
-0.020983893 0.704 -0.043202132 1.1903746e-38 303 275
-0.019749546 0.704 -0.043202132 1.2371555e-38 304 275
-0.018515198 0.704 -0.043202132 1.393924e-38 305 275
-0.017280852 0.704 -0.043202132 1.5407526e-38 306 275
-0.016023712 0.70300001 -0.043140765 1.5223495e-38 307 275
-0.014749039 0.70099998 -0.043018032 1.5223139e-38 308 275
-0.013519952 0.70099998 -0.043018032 1.540717e-38 309 275
-0.012273333 0.69999999 -0.042956665 1.549865e-38 310 275
-0.011045999 0.69999999 -0.042956665 1.2917172e-38 311 275
-0.0098186666 0.69999999 -0.042956665 9.3287522e-39 312 275
-0.0085913334 0.69999999 -0.042956665 7.6692308e-39 313 275
-0.0073639993 0.69999999 -0.042956665 2.9791605e-39 314 275
-0.0061454331 0.70099998 -0.043018032 2.7951294e-39 315 275
-0.0049163462 0.70099998 -0.043018032 4.8162236e-39 316 275
-0.0036819996 0.69999999 -0.042956665 6.9367231e-39 317 275
-0.0024546667 0.69999999 -0.042956665 9.4123158e-39 318 275
-0.0012290865 0.70099998 -0.043018032 9.6885425e-39 319 275
0 0.70099998 -0.043018032 1.2822107e-38 320 275
0.0012290865 0.70099998 -0.043018032 1.2361487e-38 321 275
0.0024651866 0.70300001 -0.043140765 1.207913e-38 322 275
0.0036977797 0.70300001 -0.043140765 1.143376e-38 323 275
0.0049303733 0.70300001 -0.043140765 1.1439894e-38 324 275
0.0061629666 0.70300001 -0.043140765 1.1624285e-38 325 275
0.0073955595 0.70300001 -0.043140765 9.327676e-39 326 275
0.0086281532 0.70300001 -0.043140765 9.6964585e-39 327 275
0.0098747732 0.704 -0.043202132 1.2913576e-38 328 275
0.011109119 0.704 -0.043202132 1.3005772e-38 329 275
0.012378532 0.70599997 -0.043324865 1.2730244e-38 330 275
0.013635674 0.70700002 -0.043386232 1.2361462e-38 331 275
0.01489632 0.708 -0.043447599 1.2176345e-38 332 275
0.016183265 0.70999998 -0.043570329 1.2176345e-38 333 275
0.01745268 0.71100003 -0.043631699 1.2634805e-38 334 275
0.018778199 0.71399999 -0.043815799 1.2727e-38 335 275
0.020030079 0.71399999 -0.043815799 1.2635881e-38 336 275
0.021341572 0.71600002 -0.043938532 1.2912468e-38 337 275
0.02262852 0.71700001 -0.043999899 1.3004292e-38 338 275
0.02388566 0.71700001 -0.043999899 1.724529e-38 339 275
0.0251428 0.71700001 -0.043999899 2.1020975e-38 340 275
0.02647358 0.71899998 -0.044122629 2.2403911e-38 341 275
-0.040789545 0.727 -0.045888241 2.2957434e-38 288 276
-0.039297458 0.72299999 -0.04563576 2.3509886e-38 289 276
-0.037871998 0.72000003 -0.045446403 2.0928058e-38 290 276
-0.036558751 0.71899998 -0.045383278 1.5672907e-38 291 276
-0.035298105 0.71899998 -0.045383278 1.1989786e-38 292 276
-0.03403746 0.71899998 -0.045383278 1.1252221e-38 293 276
-0.032685637 0.71700001 -0.045257039 1.0979253e-38 294 276
-0.031296998 0.71399999 -0.045067675 1.2546219e-38 295 276
-0.029876797 0.70999998 -0.044815198 1.4572359e-38 296 276
-0.02855128 0.708 -0.044688959 1.4848946e-38 297 276
-0.027309919 0.708 -0.044688959 1.4759624e-38 298 276
-0.025994917 0.70599997 -0.044562716 1.5312797e-38 299 276
-0.024686933 0.704 -0.044436477 1.6142209e-38 300 276
-0.023452586 0.704 -0.044436477 1.6510631e-38 301 276
-0.022218239 0.704 -0.044436477 1.5957107e-38 302 276
-0.020983893 0.704 -0.044436477 1.5311737e-38 303 276
-0.019749546 0.704 -0.044436477 1.4488092e-38 304 276
-0.018515198 0.704 -0.044436477 1.5041266e-38 305 276
-0.017280852 0.704 -0.044436477 1.55912e-38 306 276
-0.016046507 0.704 -0.044436477 1.5499003e-38 307 276
-0.014791119 0.70300001 -0.04437336 1.5223858e-38 308 276
-0.013558527 0.70300001 -0.04437336 1.5223858e-38 309 276
-0.012290866 0.70099998 -0.044247117 1.531606e-38 310 276
-0.011061779 0.70099998 -0.044247117 1.3379952e-38 311 276
-0.0098186666 0.69999999 -0.044183996 1.2366519e-38 312 276
-0.0085913334 0.69999999 -0.044183996 1.2827497e-38 313 276
-0.0073639993 0.69999999 -0.044183996 1.2735302e-38 314 276
-0.0061454331 0.70099998 -0.044247117 1.2366519e-38 315 276
-0.0049163462 0.70099998 -0.044247117 1.2457992e-38 316 276
-0.0036872597 0.70099998 -0.044247117 1.2642383e-38 317 276
-0.0024581731 0.70099998 -0.044247117 1.3008289e-38 318 276
-0.0012290865 0.70099998 -0.044247117 1.2639866e-38 319 276
0 0.70300001 -0.04437336 1.291573e-38 320 276
0.0012325933 0.70300001 -0.04437336 1.2823176e-38 321 276
0.0024651866 0.70300001 -0.04437336 1.4014872e-38 322 276
0.0036977797 0.70300001 -0.04437336 1.300072e-38 323 276
0.0049303733 0.70300001 -0.04437336 1.0609039e-38 324 276
0.0061717331 0.704 -0.044436477 1.0609039e-38 325 276
0.0074060797 0.704 -0.044436477 9.877254e-39 326 276
0.0086404262 0.704 -0.044436477 1.0338231e-38 327 276
0.0098747732 0.704 -0.044436477 1.2362203e-38 328 276
0.011140679 0.70599997 -0.044562716 1.2362203e-38 329 276
0.012378532 0.70599997 -0.044562716 1.2453302e-38 330 276
0.013635674 0.70700002 -0.044625837 1.2361106e-38 331 276
0.01489632 0.708 -0.044688959 1.1992682e-38 332 276
0.016183265 0.70999998 -0.044815198 1.1900487e-38 333 276
0.01745268 0.71100003 -0.044878319 1.2358941e-38 334 276
0.018778199 0.71399999 -0.045067675 1.2543332e-38 335 276
0.020086186 0.71600002 -0.045193922 1.2728797e-38 336 276
0.021371379 0.71700001 -0.045257039 1.2821351e-38 337 276
0.02262852 0.71700001 -0.045257039 1.3094689e-38 338 276
0.02388566 0.71700001 -0.045257039 1.7427883e-38 339 276
0.025212931 0.71899998 -0.045383278 2.1113172e-38 340 276
-0.040789545 0.727 -0.047162913 2.304891e-38 288 277
-0.039297458 0.72299999 -0.046903417 2.3509886e-38 289 277
-0.0379772 0.722 -0.046838548 2.1941487e-38 290 277
-0.036609601 0.72000003 -0.0467088 1.7608293e-38 291 277
-0.035347197 0.72000003 -0.0467088 1.3090726e-38 292 277
-0.034084801 0.72000003 -0.0467088 1.2537552e-38 293 277
-0.032776814 0.71899998 -0.046643924 1.0242404e-38 294 277
-0.031384666 0.71600002 -0.046449307 9.5048393e-39 295 277
-0.029876797 0.70999998 -0.046060063 7.9493924e-39 296 277
-0.028631933 0.70999998 -0.046060063 1.0069892e-38 297 277
-0.027309919 0.708 -0.045930319 1.3747643e-38 298 277
-0.02603174 0.70700002 -0.045865446 1.5591556e-38 299 277
-0.024757065 0.70599997 -0.04580057 1.6969818e-38 300 277
-0.023519212 0.70599997 -0.04580057 1.7338599e-38 301 277
-0.022218239 0.704 -0.045670826 1.6326968e-38 302 277
-0.020983893 0.704 -0.045670826 1.6050023e-38 303 277
-0.019805651 0.70599997 -0.04580057 1.5224214e-38 304 277
-0.018515198 0.704 -0.045670826 1.5316411e-38 305 277
-0.017280852 0.704 -0.045670826 1.5499723e-38 306 277
-0.016046507 0.704 -0.045670826 1.5499723e-38 307 277
-0.014812159 0.704 -0.045670826 1.5224214e-38 308 277
-0.013577812 0.704 -0.045670826 1.5316411e-38 309 277
-0.012325933 0.70300001 -0.04560595 1.5040913e-38 310 277
-0.011061779 0.70099998 -0.045476202 1.2920412e-38 311 277
-0.0098326923 0.70099998 -0.045476202 1.2364371e-38 312 277
-0.0086281532 0.70300001 -0.04560595 1.2272175e-38 313 277
-0.0073955595 0.70300001 -0.04560595 1.2273617e-38 314 277
-0.0061629666 0.70300001 -0.04560595 1.2089226e-38 315 277
-0.0049303733 0.70300001 -0.04560595 1.2089582e-38 316 277
-0.0036977797 0.70300001 -0.04560595 1.2273973e-38 317 277
-0.0024651866 0.70300001 -0.04560595 1.2181775e-38 318 277
-0.0012325933 0.70300001 -0.04560595 1.1720797e-38 319 277
0 0.70300001 -0.04560595 1.1812269e-38 320 277
0.0012325933 0.70300001 -0.04560595 1.1812269e-38 321 277
0.0024686933 0.704 -0.045670826 1.3371664e-38 322 277
0.0037030398 0.704 -0.045670826 1.2726294e-38 323 277
0.0049373866 0.704 -0.045670826 1.1252959e-38 324 277
0.0061717331 0.704 -0.045670826 1.1437711e-38 325 277
0.0074060797 0.704 -0.045670826 1.1254779e-38 326 277
0.0086404262 0.704 -0.045670826 1.0978553e-38 327 277
0.0099028256 0.70599997 -0.04580057 1.1353443e-38 328 277
0.011140679 0.70599997 -0.04580057 1.1722226e-38 329 277
0.012396066 0.70700002 -0.045865446 1.2085241e-38 330 277
0.013635674 0.70700002 -0.045865446 1.144023e-38 331 277
0.014938398 0.70999998 -0.046060063 1.1072534e-38 332 277
0.016183265 0.70999998 -0.046060063 1.1164731e-38 333 277
0.017501773 0.713 -0.046254687 1.1348032e-38 334 277
0.018778199 0.71399999 -0.046319555 1.2085597e-38 335 277
0.020086186 0.71600002 -0.046449307 1.3096859e-38 336 277
0.021371379 0.71700001 -0.046514176 1.3004664e-38 337 277
0.02262852 0.71700001 -0.046514176 1.3370555e-38 338 277
0.023952285 0.71899998 -0.046643924 1.7888141e-38 339 277
0.025248 0.72000003 -0.0467088 2.0928423e-38 340 277
-0.040789545 0.727 -0.048437584 2.2956715e-38 288 278
-0.039243106 0.722 -0.048104454 2.3509886e-38 289 278
-0.0379772 0.722 -0.048104454 2.2402106e-38 290 278
-0.03671129 0.722 -0.048104454 1.9360009e-38 291 278
-0.035347197 0.72000003 -0.0479712 1.4288903e-38 292 278
-0.034084801 0.72000003 -0.0479712 1.2813413e-38 293 278
-0.0328224 0.72000003 -0.0479712 1.0702659e-38 294 278
-0.031428497 0.71700001 -0.04777132 8.7665512e-39 295 278
-0.030003037 0.713 -0.047504812 3.2503076e-39 296 278
-0.028631933 0.70999998 -0.047304932 4.0797095e-39 297 278
-0.027387066 0.70999998 -0.047304932 9.7836094e-39 298 278
-0.026068559 0.708 -0.047171678 1.2826425e-38 299 278
-0.024792133 0.70700002 -0.047105055 1.5863839e-38 300 278
-0.023519212 0.70599997 -0.047038425 1.6601404e-38 301 278
-0.022281358 0.70599997 -0.047038425 1.6236219e-38 302 278
-0.021043506 0.70599997 -0.047038425 1.6144022e-38 303 278
-0.019805651 0.70599997 -0.047038425 1.5684114e-38 304 278
-0.018515198 0.704 -0.046905171 1.5591919e-38 305 278
-0.017280852 0.704 -0.046905171 1.5316411e-38 306 278
-0.016046507 0.704 -0.046905171 1.5316411e-38 307 278
-0.014812159 0.704 -0.046905171 1.5224214e-38 308 278
-0.013577812 0.704 -0.046905171 1.5132018e-38 309 278
-0.012343466 0.704 -0.046905171 1.5131309e-38 310 278
-0.01109334 0.70300001 -0.046838548 1.3287755e-38 311 278
-0.0098607466 0.70300001 -0.046838548 1.190304e-38 312 278
-0.0086281532 0.70300001 -0.046838548 1.1718648e-38 313 278
-0.0073955595 0.70300001 -0.046838548 1.2086355e-38 314 278
-0.0061629666 0.70300001 -0.046838548 1.217855e-38 315 278
-0.0049303733 0.70300001 -0.046838548 1.172152e-38 316 278
-0.0036977797 0.70300001 -0.046838548 1.1813715e-38 317 278
-0.0024651866 0.70300001 -0.046838548 1.1814068e-38 318 278
-0.0012325933 0.70300001 -0.046838548 1.1721873e-38 319 278
0 0.704 -0.046905171 1.1721153e-38 320 278
0.0012343467 0.704 -0.046905171 1.1721153e-38 321 278
0.0024686933 0.704 -0.046905171 1.282281e-38 322 278
0.0037030398 0.704 -0.046905171 1.2085244e-38 323 278
0.0049373866 0.704 -0.046905171 1.134731e-38 324 278
0.0061892662 0.70599997 -0.047038425 1.1623537e-38 325 278
0.0074271196 0.70599997 -0.047038425 1.0701587e-38 326 278
0.0086649731 0.70599997 -0.047038425 1.1346957e-38 327 278
0.0099028256 0.70599997 -0.047038425 1.1168682e-38 328 278
0.011140679 0.70599997 -0.047038425 1.162966e-38 329 278
0.012396066 0.70700002 -0.047105055 1.1901929e-38 330 278
0.013654959 0.708 -0.047171678 1.1256559e-38 331 278
0.014938398 0.70999998 -0.047304932 1.08885e-38 332 278
0.01620606 0.71100003 -0.047371563 1.107289e-38 333 278
0.017501773 0.713 -0.047504812 1.162462e-38 334 278
0.018778199 0.71399999 -0.047571439 1.2177794e-38 335 278
0.020086186 0.71600002 -0.047704693 1.2913194e-38 336 278
0.021371379 0.71700001 -0.04777132 1.2728803e-38 337 278
0.02262852 0.71700001 -0.04777132 1.3280525e-38 338 278
0.02388566 0.71700001 -0.04777132 1.7521525e-38 339 278
0.025212931 0.71899998 -0.04790457 2.0744755e-38 340 278
0.02647358 0.71899998 -0.04790457 2.1297929e-38 341 278
-0.039243106 0.722 -0.04937036 2.3417333e-38 289 279
-0.0379772 0.722 -0.04937036 2.2403188e-38 290 279
-0.03671129 0.722 -0.04937036 2.0005743e-38 291 279
