# .PCD v.7 - Point Cloud Data file format
FIELDS x y z rgb imX imY
SIZE 4 4 4 4 4 4
TYPE F F F F F F
COUNT 1 1 1 1 1 1
WIDTH 835
HEIGHT 1
VIEWPOINT 0 0 0 1 0 0 0
POINTS 835
DATA ascii
-0.023319334 0.69999999 -0.031910665 1.657654e-38 301 266
-0.02202888 0.69800001 -0.031819493 1.6398615e-38 302 266
-0.020805053 0.69800001 -0.031819493 1.6583008e-38 303 266
-0.019637333 0.69999999 -0.031910665 1.4085443e-38 304 266
-0.0183574 0.69800001 -0.031819493 1.0674205e-38 305 266
-0.017133573 0.69800001 -0.031819493 1.3132547e-38 306 266
-0.015909746 0.69800001 -0.031819493 1.5159059e-38 307 266
-0.01466488 0.69700003 -0.03177391 1.5394187e-38 308 266
-0.013423519 0.69599998 -0.031728316 1.7330295e-38 309 266
-0.0122032 0.69599998 -0.031728316 1.5589751e-38 310 266
-0.010982879 0.69599998 -0.031728316 1.5129131e-38 311 266
-0.0097345067 0.69400001 -0.031637147 1.4022069e-38 312 266
-0.0085176928 0.69400001 -0.031637147 1.2085961e-38 313 266
-0.0073008798 0.69400001 -0.031637147 1.0983582e-38 314 266
-0.0061015999 0.69599998 -0.031728316 1.1352364e-38 315 266
-0.0048812795 0.69599998 -0.031728316 1.2177812e-38 316 266
-0.0036609597 0.69599998 -0.031728316 1.2362203e-38 317 266
-0.0024406398 0.69599998 -0.031728316 1.1902298e-38 318 266
-0.0012203199 0.69599998 -0.031728316 1.1902298e-38 319 266
0 0.69700003 -0.03177391 1.2087046e-38 320 266
0.0012220733 0.69700003 -0.03177391 1.2179241e-38 321 266
0.0024441467 0.69700003 -0.03177391 1.2455458e-38 322 266
0.00366622 0.69700003 -0.03177391 1.2455458e-38 323 266
0.0048882933 0.69700003 -0.03177391 1.2911043e-38 324 266
0.006119133 0.69800001 -0.031819493 1.272665e-38 325 266
0.0073429602 0.69800001 -0.031819493 1.2177443e-38 326 266
0.0085667865 0.69800001 -0.031819493 1.162427e-38 327 266
0.0097906133 0.69800001 -0.031819493 1.1349125e-38 328 266
0.011045999 0.69999999 -0.031910665 1.144132e-38 329 266
0.012273333 0.69999999 -0.031910665 1.2175641e-38 330 266
0.013558527 0.70300001 -0.032047424 1.2175641e-38 331 266
0.014812159 0.704 -0.032093015 1.2084875e-38 332 266
0.016092092 0.70599997 -0.032184184 1.2084875e-38 333 266
0.017329946 0.70599997 -0.032184184 1.21785e-38 334 266
0.018567799 0.70599997 -0.032184184 1.21785e-38 335 266
0.019833706 0.70700002 -0.032229774 1.2912462e-38 336 266
0.021103119 0.708 -0.03227536 1.3189408e-38 337 266
0.022407599 0.70999998 -0.032366529 1.3650734e-38 338 266
0.023685781 0.71100003 -0.032412119 1.6877581e-38 339 266
0.025037598 0.71399999 -0.032548878 1.9917143e-38 340 266
0.026289478 0.71399999 -0.032548878 2.1853251e-38 341 266
-0.039835732 0.70999998 -0.033611398 2.2771967e-38 288 267
-0.038590867 0.70999998 -0.033611398 2.3141109e-38 289 267
-0.037345998 0.70999998 -0.033611398 2.083621e-38 290 267
-0.036101133 0.70999998 -0.033611398 1.6410819e-38 291 267
-0.034856264 0.70999998 -0.033611398 1.3456972e-38 292 267
-0.033611398 0.70999998 -0.033611398 1.4747711e-38 293 267
-0.03227536 0.708 -0.033516716 1.6402929e-38 294 267
-0.030990168 0.70700002 -0.033469379 1.4651572e-38 295 267
-0.029708479 0.70599997 -0.033422034 1.5098873e-38 296 267
-0.028389972 0.704 -0.03332736 1.3623742e-38 297 267
-0.027155625 0.704 -0.03332736 1.4163969e-38 298 267
-0.025884461 0.70300001 -0.033280019 1.2043469e-38 299 267
-0.024581732 0.70099998 -0.03318534 1.3507459e-38 300 267
-0.023319334 0.69999999 -0.033137999 1.4152829e-38 301 267
-0.02202888 0.69800001 -0.033043321 1.4169007e-38 302 267
-0.020805053 0.69800001 -0.033043321 1.5459745e-38 303 267
-0.019637333 0.69999999 -0.033137999 1.4900805e-38 304 267
-0.0183574 0.69800001 -0.033043321 1.3333838e-38 305 267
-0.017133573 0.69800001 -0.033043321 1.3318381e-38 306 267
-0.015909746 0.69800001 -0.033043321 1.4978261e-38 307 267
-0.01468592 0.69800001 -0.033043321 1.5301994e-38 308 267
-0.013462093 0.69800001 -0.033043321 1.7330298e-38 309 267
-0.0122032 0.69599998 -0.032948639 1.5590473e-38 310 267
-0.010982879 0.69599998 -0.032948639 1.5037299e-38 311 267
-0.0097625591 0.69599998 -0.032948639 1.3931677e-38 312 267
-0.0085422397 0.69599998 -0.032948639 1.1995569e-38 313 267
-0.0073219193 0.69599998 -0.032948639 1.0983582e-38 314 267
-0.0061015999 0.69599998 -0.032948639 1.144456e-38 315 267
-0.0048812795 0.69599998 -0.032948639 1.2087414e-38 316 267
-0.00366622 0.69700003 -0.03299598 1.2087414e-38 317 267
-0.0024441467 0.69700003 -0.03299598 1.190302e-38 318 267
-0.0012220733 0.69700003 -0.03299598 1.1718989e-38 319 267
0 0.69800001 -0.033043321 1.190302e-38 320 267
0.0012238267 0.69800001 -0.033043321 1.190302e-38 321 267
0.0024476533 0.69800001 -0.033043321 1.2361837e-38 322 267
0.0036714801 0.69800001 -0.033043321 1.2361837e-38 323 267
0.0048953067 0.69800001 -0.033043321 1.2360756e-38 324 267
0.006119133 0.69800001 -0.033043321 1.2913928e-38 325 267
0.0073429602 0.69800001 -0.033043321 1.2085614e-38 326 267
0.0085667865 0.69800001 -0.033043321 1.0794875e-38 327 267
0.0097906133 0.69800001 -0.033043321 1.180651e-38 328 267
0.011045999 0.69999999 -0.033137999 1.2083095e-38 329 267
0.012290866 0.70099998 -0.03318534 1.1993048e-38 330 267
0.013558527 0.70300001 -0.033280019 1.1993048e-38 331 267
0.014812159 0.704 -0.03332736 1.2084875e-38 332 267
0.016092092 0.70599997 -0.033422034 1.2084875e-38 333 267
0.017329946 0.70599997 -0.033422034 1.2360736e-38 334 267
0.018594101 0.70700002 -0.033469379 1.2729519e-38 335 267
0.01986176 0.708 -0.033516716 1.3557832e-38 336 267
0.021162732 0.70999998 -0.033611398 1.3650027e-38 337 267
0.022407599 0.70999998 -0.033611398 1.3556017e-38 338 267
0.023685781 0.71100003 -0.033658739 1.7152007e-38 339 267
0.025037598 0.71399999 -0.033800758 2.0099373e-38 340 267
-0.038645219 0.71100003 -0.034905359 2.3325138e-38 289 268
-0.037398599 0.71100003 -0.034905359 2.148086e-38 290 268
-0.036151983 0.71100003 -0.034905359 1.7424251e-38 291 268
-0.034856264 0.70999998 -0.034856264 1.4377849e-38 292 268
-0.033611398 0.70999998 -0.034856264 1.5023219e-38 293 268
-0.03227536 0.708 -0.034758076 1.6498364e-38 294 268
-0.031034 0.708 -0.034758076 1.4747007e-38 295 268
-0.029750559 0.70700002 -0.034708988 1.3999731e-38 296 268
-0.028470624 0.70599997 -0.034659892 1.316997e-38 297 268
-0.027155625 0.704 -0.034561705 1.3530459e-38 298 268
-0.025884461 0.70300001 -0.034512613 1.1870577e-38 299 268
-0.024651866 0.70300001 -0.034512613 1.2228561e-38 300 268
-0.023352645 0.70099998 -0.034414422 1.1675746e-38 301 268
-0.022091998 0.69999999 -0.034365334 1.2592308e-38 302 268
-0.020864666 0.69999999 -0.034365334 1.4067438e-38 303 268
-0.019637333 0.69999999 -0.034365334 1.3975592e-38 304 268
-0.018409999 0.69999999 -0.034365334 1.3975592e-38 305 268
-0.017182667 0.69999999 -0.034365334 1.3317297e-38 306 268
-0.015909746 0.69800001 -0.034267146 1.516121e-38 307 268
-0.01468592 0.69800001 -0.034267146 1.5209443e-38 308 268
-0.013462093 0.69800001 -0.034267146 1.7422498e-38 309 268
-0.012238266 0.69800001 -0.034267146 1.5314609e-38 310 268
-0.01099866 0.69700003 -0.034218054 1.4761435e-38 311 268
-0.0097765867 0.69700003 -0.034218054 1.3840207e-38 312 268
-0.0085545136 0.69700003 -0.034218054 1.1904099e-38 313 268
-0.00733244 0.69700003 -0.034218054 1.0432935e-38 314 268
-0.0061103669 0.69700003 -0.034218054 1.0893554e-38 315 268
-0.0048953067 0.69800001 -0.034267146 1.1536761e-38 316 268
-0.0036714801 0.69800001 -0.034267146 1.1628957e-38 317 268
-0.0024476533 0.69800001 -0.034267146 1.2087409e-38 318 268
-0.0012238267 0.69800001 -0.034267146 1.2087409e-38 319 268
0 0.69800001 -0.034267146 1.208669e-38 320 268
0.0012238267 0.69800001 -0.034267146 1.1994494e-38 321 268
0.0024476533 0.69800001 -0.034267146 1.2087765e-38 322 268
0.0036714801 0.69800001 -0.034267146 1.217996e-38 323 268
0.0048953067 0.69800001 -0.034267146 1.2362909e-38 324 268
0.006119133 0.69800001 -0.034267146 1.2547301e-38 325 268
0.0073429602 0.69800001 -0.034267146 1.2360753e-38 326 268
0.0085913334 0.69999999 -0.034365334 1.1992329e-38 327 268
0.0098186666 0.69999999 -0.034365334 1.190085e-38 328 268
0.011045999 0.69999999 -0.034365334 1.190085e-38 329 268
0.012325933 0.70300001 -0.034512613 1.2084525e-38 330 268
0.013577812 0.704 -0.034561705 1.2084525e-38 331 268
0.014812159 0.704 -0.034561705 1.2451502e-38 332 268
0.016092092 0.70599997 -0.034659892 1.2451502e-38 333 268
0.017354494 0.70700002 -0.034708988 1.2267827e-38 334 268
0.0186204 0.708 -0.034758076 1.2636251e-38 335 268
0.019917866 0.70999998 -0.034856264 1.2914629e-38 336 268
0.021162732 0.70999998 -0.034856264 1.2914629e-38 337 268
0.022439159 0.71100003 -0.034905359 1.3095042e-38 338 268
0.023752406 0.713 -0.035003547 1.7059454e-38 339 268
0.025037598 0.71399999 -0.035052639 2.055783e-38 340 268
-0.038808275 0.71399999 -0.036304519 2.3049273e-38 289 269
-0.037503798 0.713 -0.036253672 2.2034035e-38 290 269
-0.036253672 0.713 -0.036253672 1.8714993e-38 291 269
-0.034905359 0.71100003 -0.036151983 1.5668941e-38 292 269
-0.033611398 0.70999998 -0.036101133 1.6222115e-38 293 269
-0.03227536 0.708 -0.03599944 1.7516819e-38 294 269
-0.031034 0.708 -0.03599944 1.5580711e-38 295 269
-0.029750559 0.70700002 -0.035948593 1.3361918e-38 296 269
-0.028470624 0.70599997 -0.035897743 1.2532517e-38 297 269
-0.027155625 0.704 -0.035796054 1.455652e-38 298 269
-0.025884461 0.70300001 -0.035745207 1.5662509e-38 299 269
-0.024651866 0.70300001 -0.035745207 1.4188811e-38 300 269
-0.023352645 0.70099998 -0.035643511 1.2437094e-38 301 269
-0.022091998 0.69999999 -0.035592664 1.2883654e-38 302 269
-0.020864666 0.69999999 -0.035592664 1.0855351e-38 303 269
-0.019637333 0.69999999 -0.035592664 1.2042005e-38 304 269
-0.018409999 0.69999999 -0.035592664 1.1949809e-38 305 269
-0.017182667 0.69999999 -0.035592664 1.2397859e-38 306 269
-0.015909746 0.69800001 -0.035490975 1.506938e-38 307 269
-0.01468592 0.69800001 -0.035490975 1.5025777e-38 308 269
-0.013462093 0.69800001 -0.035490975 1.7238833e-38 309 269
-0.012238266 0.69800001 -0.035490975 1.5499003e-38 310 269
-0.01101444 0.69800001 -0.035490975 1.4761438e-38 311 269
-0.0097906133 0.69800001 -0.035490975 1.4023169e-38 312 269
-0.0085667865 0.69800001 -0.035490975 1.2271454e-38 313 269
-0.0073429602 0.69800001 -0.035490975 1.0893204e-38 314 269
-0.006119133 0.69800001 -0.035490975 1.0985399e-38 315 269
-0.0048953067 0.69800001 -0.035490975 1.1535333e-38 316 269
-0.0036714801 0.69800001 -0.035490975 1.1904115e-38 317 269
-0.0024476533 0.69800001 -0.035490975 1.1996662e-38 318 269
-0.0012238267 0.69800001 -0.035490975 1.1996662e-38 319 269
0 0.69800001 -0.035490975 1.1904818e-38 320 269
0.0012238267 0.69800001 -0.035490975 1.1812622e-38 321 269
0.0024476533 0.69800001 -0.035490975 1.2180679e-38 322 269
0.0036714801 0.69800001 -0.035490975 1.2180679e-38 323 269
0.0048953067 0.69800001 -0.035490975 1.2179238e-38 324 269
0.0061366665 0.69999999 -0.035592664 1.2179238e-38 325 269
0.0073639993 0.69999999 -0.035592664 1.2269992e-38 326 269
0.0085913334 0.69999999 -0.035592664 1.2177797e-38 327 269
0.0098326923 0.70099998 -0.035643511 1.2084878e-38 328 269
0.011061779 0.70099998 -0.035643511 1.2084878e-38 329 269
0.012325933 0.70300001 -0.035745207 1.2084525e-38 330 269
0.013577812 0.704 -0.035796054 1.2084525e-38 331 269
0.014854239 0.70599997 -0.035897743 1.2636967e-38 332 269
0.016114887 0.70700002 -0.035948593 1.2636967e-38 333 269
0.017354494 0.70700002 -0.035948593 1.1255821e-38 334 269
0.0186204 0.708 -0.03599944 1.1071071e-38 335 269
0.019917866 0.70999998 -0.036101133 1.1901553e-38 336 269
0.021192541 0.71100003 -0.036151983 1.1901553e-38 337 269
0.022439159 0.71100003 -0.036151983 1.2726982e-38 338 269
0.023752406 0.713 -0.036253672 1.7060177e-38 339 269
0.025037598 0.71399999 -0.036304519 2.0833341e-38 340 269
0.026289478 0.71399999 -0.036304519 2.2677254e-38 341 269
-0.038753927 0.713 -0.037503798 2.3048554e-38 289 270
-0.037503798 0.713 -0.037503798 2.2218075e-38 290 270
-0.036151983 0.71100003 -0.037398599 1.9452206e-38 291 270
-0.034905359 0.71100003 -0.037398599 1.7514298e-38 292 270
-0.033611398 0.70999998 -0.037345998 1.6961125e-38 293 270
-0.03227536 0.708 -0.0372408 1.6505907e-38 294 270
-0.031034 0.708 -0.0372408 1.6044929e-38 295 270
-0.029750559 0.70700002 -0.037188202 1.4386149e-38 296 270
-0.028470624 0.70599997 -0.037135597 1.3925172e-38 297 270
-0.027155625 0.704 -0.037030395 1.5120497e-38 298 270
-0.025884461 0.70300001 -0.036977798 1.5581116e-38 299 270
-0.024651866 0.70300001 -0.036977798 1.4475843e-38 300 270
-0.023352645 0.70099998 -0.036872596 1.392267e-38 301 270
-0.022123558 0.70099998 -0.036872596 1.4106322e-38 302 270
-0.020894472 0.70099998 -0.036872596 1.2538998e-38 303 270
-0.019665385 0.70099998 -0.036872596 1.3078122e-38 304 270
-0.018409999 0.69999999 -0.036819998 1.1511155e-38 305 270
-0.017182667 0.69999999 -0.036819998 1.0751656e-38 306 270
-0.015955333 0.69999999 -0.036819998 1.296435e-38 307 270
-0.01468592 0.69800001 -0.0367148 1.4382926e-38 308 270
-0.013462093 0.69800001 -0.0367148 1.6688176e-38 309 270
-0.012238266 0.69800001 -0.0367148 1.5867064e-38 310 270
-0.01101444 0.69800001 -0.0367148 1.4944747e-38 311 270
-0.0097906133 0.69800001 -0.0367148 1.3930974e-38 312 270
-0.0085667865 0.69800001 -0.0367148 1.2179257e-38 313 270
-0.0073429602 0.69800001 -0.0367148 1.1536055e-38 314 270
-0.0061366665 0.69999999 -0.036819998 1.1720446e-38 315 270
-0.0049093333 0.69999999 -0.036819998 1.1812997e-38 316 270
-0.0036819996 0.69999999 -0.036819998 1.1628604e-38 317 270
-0.0024546667 0.69999999 -0.036819998 1.1628957e-38 318 270
-0.0012273333 0.69999999 -0.036819998 1.1444207e-38 319 270
0 0.69999999 -0.036819998 1.1718636e-38 320 270
0.0012273333 0.69999999 -0.036819998 1.1718636e-38 321 270
0.0024476533 0.69800001 -0.0367148 1.1994141e-38 322 270
0.0036714801 0.69800001 -0.0367148 1.2086695e-38 323 270
0.0048953067 0.69800001 -0.0367148 1.1994497e-38 324 270
0.0061366665 0.69999999 -0.036819998 1.1994497e-38 325 270
0.0073639993 0.69999999 -0.036819998 1.2360756e-38 326 270
0.0085913334 0.69999999 -0.036819998 1.2545147e-38 327 270
0.0098326923 0.70099998 -0.036872596 1.2820648e-38 328 270
0.01109334 0.70300001 -0.036977798 1.2635898e-38 329 270
0.012343466 0.704 -0.037030395 1.171754e-38 330 270
0.013616386 0.70599997 -0.037135597 1.1440594e-38 331 270
0.014854239 0.70599997 -0.037135597 1.1348032e-38 332 270
0.016114887 0.70700002 -0.037188202 1.1163282e-38 333 270
0.017379038 0.708 -0.0372408 9.3236753e-39 334 270
0.018672999 0.70999998 -0.037345998 9.7846534e-39 335 270
0.01994592 0.71100003 -0.037398599 1.2544407e-38 336 270
0.021192541 0.71100003 -0.037398599 1.1991235e-38 337 270
0.022502279 0.713 -0.037503798 1.3001774e-38 338 270
0.02378572 0.71399999 -0.037556399 1.7703391e-38 339 270
0.025107734 0.71600002 -0.037661601 2.0834063e-38 340 270
0.026363119 0.71600002 -0.037661601 2.2585781e-38 341 270
-0.037503798 0.713 -0.038753927 2.1758188e-38 290 271
-0.036151983 0.71100003 -0.038645219 1.9176711e-38 291 271
-0.034905359 0.71100003 -0.038645219 1.7518634e-38 292 271
-0.033611398 0.70999998 -0.038590867 1.7057656e-38 293 271
-0.032366529 0.70999998 -0.038590867 1.5768715e-38 294 271
-0.031034 0.708 -0.038482159 1.5492128e-38 295 271
-0.02979264 0.708 -0.038482159 1.5126962e-38 296 271
-0.028470624 0.70599997 -0.038373452 1.5126962e-38 297 271
-0.027155625 0.704 -0.038264744 1.531029e-38 298 271
-0.02592128 0.704 -0.038264744 1.531029e-38 299 271
-0.024651866 0.70300001 -0.038210396 1.4481608e-38 300 271
-0.023352645 0.70099998 -0.038101684 1.402063e-38 301 271
-0.022123558 0.70099998 -0.038101684 1.5036577e-38 302 271
-0.020894472 0.70099998 -0.038101684 1.623512e-38 303 271
-0.019665385 0.70099998 -0.038101684 1.6504498e-38 304 271
-0.018436298 0.70099998 -0.038101684 1.4292163e-38 305 271
-0.017182667 0.69999999 -0.038047329 1.1882144e-38 306 271
-0.015955333 0.69999999 -0.038047329 1.06836e-38 307 271
-0.014727999 0.69999999 -0.038047329 1.401633e-38 308 271
-0.013500666 0.69999999 -0.038047329 1.6044633e-38 309 271
-0.012238266 0.69800001 -0.037938625 1.5774865e-38 310 271
-0.01101444 0.69800001 -0.037938625 1.5129496e-38 311 271
-0.0097906133 0.69800001 -0.037938625 1.4022801e-38 312 271
-0.0085667865 0.69800001 -0.037938625 1.2362919e-38 313 271
-0.0073429602 0.69800001 -0.037938625 1.1718999e-38 314 271
-0.0061366665 0.69999999 -0.038047329 1.2456564e-38 315 271
-0.0049093333 0.69999999 -0.038047329 1.282426e-38 316 271
-0.0036819996 0.69999999 -0.038047329 1.1901945e-38 317 271
-0.0024546667 0.69999999 -0.038047329 1.1258377e-38 318 271
-0.0012273333 0.69999999 -0.038047329 1.1166181e-38 319 271
0 0.69999999 -0.038047329 1.1349496e-38 320 271
0.0012273333 0.69999999 -0.038047329 1.1441692e-38 321 271
0.0024546667 0.69999999 -0.038047329 1.2269289e-38 322 271
0.0036819996 0.69999999 -0.038047329 1.2361484e-38 323 271
0.0049093333 0.69999999 -0.038047329 1.2177812e-38 324 271
0.0061366665 0.69999999 -0.038047329 1.2362203e-38 325 271
0.0073639993 0.69999999 -0.038047329 1.2269639e-38 326 271
0.0086036054 0.70099998 -0.038101684 1.2269639e-38 327 271
0.0098607466 0.70300001 -0.038210396 1.2821367e-38 328 271
0.01109334 0.70300001 -0.038210396 1.2360389e-38 329 271
0.012343466 0.704 -0.038264744 1.08885e-38 330 271
0.013616386 0.70599997 -0.038373452 9.7821507e-39 331 271
0.01487528 0.70700002 -0.038427804 9.1382246e-39 332 271
0.01613768 0.708 -0.038482159 9.1382246e-39 333 271
0.017428132 0.70999998 -0.038590867 1.0059811e-38 334 271
0.0186993 0.71100003 -0.038645219 1.0981767e-38 335 271
0.01994592 0.71100003 -0.038645219 1.27288e-38 336 271
0.021252153 0.713 -0.038753927 1.1991235e-38 337 271
0.022533838 0.71399999 -0.038808275 1.2726985e-38 338 271
0.023852346 0.71600002 -0.038916986 1.7428962e-38 339 271
0.0251428 0.71700001 -0.038971342 2.0743308e-38 340 271
0.02639994 0.71700001 -0.038971342 2.2495385e-38 341 271
-0.037556399 0.71399999 -0.040060159 2.083803e-38 290 272
-0.036253672 0.713 -0.040004052 1.7611183e-38 291 272
-0.034905359 0.71100003 -0.039891839 1.5127313e-38 292 272
-0.033658739 0.71100003 -0.039891839 1.5403898e-38 293 272
-0.032366529 0.70999998 -0.039835732 1.677964e-38 294 272
-0.031121666 0.70999998 -0.039835732 1.6411217e-38 295 272
-0.02979264 0.708 -0.039723519 1.4114608e-38 296 272
-0.028510952 0.70700002 -0.039667413 1.3837661e-38 297 272
-0.027232772 0.70599997 -0.039611302 1.4113905e-38 298 272
-0.02592128 0.704 -0.039499093 1.42061e-38 299 272
-0.024686933 0.704 -0.039499093 1.3562892e-38 300 272
-0.023419274 0.70300001 -0.039442986 1.3010078e-38 301 272
-0.02218668 0.70300001 -0.039442986 1.2461233e-38 302 272
-0.020954086 0.70300001 -0.039442986 1.3844526e-38 303 272
-0.019721493 0.70300001 -0.039442986 1.5774512e-38 304 272
-0.018488899 0.70300001 -0.039442986 1.5867066e-38 305 272
-0.017207211 0.70099998 -0.039330769 1.5311722e-38 306 272
-0.015978126 0.70099998 -0.039330769 1.4205014e-38 307 272
-0.014727999 0.69999999 -0.039274666 1.5126259e-38 308 272
-0.013500666 0.69999999 -0.039274666 1.5955659e-38 309 272
-0.012273333 0.69999999 -0.039274666 1.540716e-38 310 272
-0.011045999 0.69999999 -0.039274666 1.5314965e-38 311 272
-0.0098186666 0.69999999 -0.039274666 1.4483056e-38 312 272
-0.0085913334 0.69999999 -0.039274666 1.273098e-38 313 272
-0.0073639993 0.69999999 -0.039274666 1.1814066e-38 314 272
-0.0061366665 0.69999999 -0.039274666 1.2644185e-38 315 272
-0.0049093333 0.69999999 -0.039274666 1.3469983e-38 316 272
-0.0036819996 0.69999999 -0.039274666 1.2824613e-38 317 272
-0.0024546667 0.69999999 -0.039274666 1.2732059e-38 318 272
-0.0012273333 0.69999999 -0.039274666 1.3193037e-38 319 272
0 0.69999999 -0.039274666 1.3468545e-38 320 272
0.0012273333 0.69999999 -0.039274666 1.337635e-38 321 272
0.0024546667 0.69999999 -0.039274666 1.2733131e-38 322 272
0.0036819996 0.69999999 -0.039274666 1.1995566e-38 323 272
0.0049093333 0.69999999 -0.039274666 1.2728099e-38 324 272
0.0061366665 0.69999999 -0.039274666 1.3280914e-38 325 272
0.0073745195 0.70099998 -0.039330769 1.190158e-38 326 272
0.0086036054 0.70099998 -0.039330769 8.2133943e-39 327 272
0.0098607466 0.70300001 -0.039442986 7.6638232e-39 328 272
0.011109119 0.704 -0.039499093 8.0326043e-39 329 272
0.012378532 0.70599997 -0.039611302 8.0387196e-39 330 272
0.013616386 0.70599997 -0.039611302 8.5918934e-39 331 272
0.01487528 0.70700002 -0.039667413 9.9683412e-39 332 272
0.01613768 0.708 -0.039723519 1.0705906e-38 333 272
0.017428132 0.70999998 -0.039835732 1.1991598e-38 334 272
0.0186993 0.71100003 -0.039891839 1.2176348e-38 335 272
0.020002026 0.713 -0.040004052 1.2636601e-38 336 272
0.021281958 0.71399999 -0.040060159 1.1899035e-38 337 272
0.022596961 0.71600002 -0.040172372 1.2358926e-38 338 272
0.02388566 0.71700001 -0.040228479 1.7244934e-38 339 272
0.0251428 0.71700001 -0.040228479 2.0560717e-38 340 272
0.02639994 0.71700001 -0.040228479 2.2220599e-38 341 272
-0.036253672 0.713 -0.041254178 1.6044213e-38 291 273
-0.035003547 0.713 -0.041254178 1.4204999e-38 292 273
-0.033658739 0.71100003 -0.041138459 1.4850368e-38 293 273
-0.032412119 0.71100003 -0.041138459 1.6691766e-38 294 273
-0.031121666 0.70999998 -0.041080594 1.6691766e-38 295 273
-0.029876797 0.70999998 -0.041080594 1.4757457e-38 296 273
-0.02855128 0.708 -0.040964879 1.4388314e-38 297 273
-0.027271347 0.70700002 -0.040907022 1.3746547e-38 298 273
-0.025994917 0.70599997 -0.040849157 1.3561797e-38 299 273
-0.024686933 0.704 -0.040733438 1.3653645e-38 300 273
-0.023419274 0.70300001 -0.040675577 1.356145e-38 301 273
-0.02218668 0.70300001 -0.040675577 1.2456917e-38 302 273
-0.020954086 0.70300001 -0.040675577 1.2549113e-38 303 273
-0.019749546 0.704 -0.040733438 1.3932053e-38 304 273
-0.018488899 0.70300001 -0.040675577 1.5960357e-38 305 273
-0.017256306 0.70300001 -0.040675577 1.6604276e-38 306 273
-0.015978126 0.70099998 -0.040559858 1.6419884e-38 307 273
-0.014727999 0.69999999 -0.040502001 1.5590117e-38 308 273
-0.013500666 0.69999999 -0.040502001 1.5221694e-38 309 273
-0.012273333 0.69999999 -0.040502001 1.5314965e-38 310 273
-0.011045999 0.69999999 -0.040502001 1.5499356e-38 311 273
-0.0098186666 0.69999999 -0.040502001 1.4391576e-38 312 273
-0.0085913334 0.69999999 -0.040502001 1.1257285e-38 313 273
-0.0073639993 0.69999999 -0.040502001 1.0335696e-38 314 273
-0.0061366665 0.69999999 -0.040502001 1.2640585e-38 315 273
-0.0049093333 0.69999999 -0.040502001 1.4201794e-38 316 273
-0.0036819996 0.69999999 -0.040502001 1.3741175e-38 317 273
-0.0024546667 0.69999999 -0.040502001 1.3926637e-38 318 273
-0.0012273333 0.69999999 -0.040502001 1.4387613e-38 319 273
0 0.69999999 -0.040502001 1.392879e-38 320 273
0.0012273333 0.69999999 -0.040502001 1.3836595e-38 321 273
0.0024546667 0.69999999 -0.040502001 1.2182478e-38 322 273
0.0036819996 0.69999999 -0.040502001 1.0154174e-38 323 273
0.0049093333 0.69999999 -0.040502001 1.0153105e-38 324 273
0.0061454331 0.70099998 -0.040559858 1.1443844e-38 325 273
0.0073745195 0.70099998 -0.040559858 1.2542982e-38 326 273
0.0086281532 0.70300001 -0.040675577 9.4083319e-39 327 273
0.0098747732 0.704 -0.040733438 7.0177223e-39 328 273
0.011109119 0.704 -0.040733438 7.2024723e-39 329 273
0.012378532 0.70599997 -0.040849157 8.5879431e-39 330 273
0.013616386 0.70599997 -0.040849157 1.0063073e-38 331 273
0.01487528 0.70700002 -0.040907022 1.1624986e-38 332 273
0.01613768 0.708 -0.040964879 1.1901931e-38 333 273
0.017428132 0.70999998 -0.041080594 1.208343e-38 334 273
0.0186993 0.71100003 -0.041138459 1.2175626e-38 335 273
0.020030079 0.71399999 -0.041312039 1.2634802e-38 336 273
0.021341572 0.71600002 -0.041427758 1.2358575e-38 337 273
0.02262852 0.71700001 -0.041485619 1.2817746e-38 338 273
0.02388566 0.71700001 -0.041485619 1.7520082e-38 339 273
0.0251428 0.71700001 -0.041485619 2.04696e-38 340 273
0.02639994 0.71700001 -0.041485619 2.2220959e-38 341 273
-0.036304519 0.71399999 -0.042563915 1.4661276e-38 291 274
-0.035052639 0.71399999 -0.042563915 1.070336e-38 292 274
-0.033753417 0.713 -0.042504307 1.2916415e-38 293 274
-0.032503292 0.713 -0.042504307 1.4665627e-38 294 274
-0.031165501 0.71100003 -0.042385083 1.5403192e-38 295 274
-0.029876797 0.70999998 -0.042325463 1.6231155e-38 296 274
-0.028631933 0.70999998 -0.042325463 1.632335e-38 297 274
-0.027309919 0.708 -0.042206239 1.5126959e-38 298 274
-0.02603174 0.70700002 -0.042146627 1.3375241e-38 299 274
-0.024757065 0.70599997 -0.042087011 1.2553043e-38 300 274
-0.023452586 0.704 -0.041967787 1.3659031e-38 301 274
-0.022218239 0.704 -0.041967787 1.4111752e-38 302 274
-0.020983893 0.704 -0.041967787 1.2821014e-38 303 274
-0.019749546 0.704 -0.041967787 1.1355964e-38 304 274
-0.018515198 0.704 -0.041967787 1.2738899e-38 305 274
-0.017256306 0.70300001 -0.041908171 1.4855435e-38 306 274
-0.016023712 0.70300001 -0.041908171 1.5316055e-38 307 274
-0.014749039 0.70099998 -0.041788943 1.5039464e-38 308 274
-0.013519952 0.70099998 -0.041788943 1.5039464e-38 309 274
-0.012273333 0.69999999 -0.041729331 1.5223495e-38 310 274
-0.011045999 0.69999999 -0.041729331 1.5499723e-38 311 274
-0.0098186666 0.69999999 -0.041729331 1.3841277e-38 312 274
-0.0085913334 0.69999999 -0.041729331 9.3236907e-39 313 274
-0.0073639993 0.69999999 -0.041729331 7.7531406e-39 314 274
-0.0061366665 0.69999999 -0.041729331 8.1222832e-39 315 274
-0.0049093333 0.69999999 -0.041729331 9.8650053e-39 316 274
-0.0036819996 0.69999999 -0.041729331 1.0234148e-38 317 274
-0.0024546667 0.69999999 -0.041729331 9.8700303e-39 318 274
-0.0012273333 0.69999999 -0.041729331 9.5012492e-39 319 274
0 0.69999999 -0.041729331 8.2166411e-39 320 274
0.0012273333 0.69999999 -0.041729331 9.3229872e-39 321 274
0.0024546667 0.69999999 -0.041729331 9.6024524e-39 322 274
0.0036872597 0.70099998 -0.041788943 8.1269622e-39 323 274
0.0049163462 0.70099998 -0.041788943 6.9374083e-39 324 274
0.0061629666 0.70300001 -0.041908171 9.4266903e-39 325 274
0.0073955595 0.70300001 -0.041908171 1.3463859e-38 326 274
0.0086281532 0.70300001 -0.041908171 1.2634099e-38 327 274
0.0098747732 0.704 -0.041967787 1.2912468e-38 328 274
0.011109119 0.704 -0.041967787 1.3096859e-38 329 274
0.012378532 0.70599997 -0.042087011 1.2452583e-38 330 274
0.013616386 0.70599997 -0.042087011 1.2452583e-38 331 274
0.01487528 0.70700002 -0.042146627 1.2545856e-38 332 274
0.016183265 0.70999998 -0.042325463 1.1992682e-38 333 274
0.01745268 0.71100003 -0.042385083 1.2084152e-38 334 274
0.018751899 0.713 -0.042504307 1.2084152e-38 335 274
0.020030079 0.71399999 -0.042563915 1.2819193e-38 336 274
0.021341572 0.71600002 -0.042683143 1.2911749e-38 337 274
0.02262852 0.71700001 -0.042742759 1.3095761e-38 338 274
0.02388566 0.71700001 -0.042742759 1.715237e-38 339 274
0.025212931 0.71899998 -0.042861983 2.019229e-38 340 274
0.02647358 0.71899998 -0.042861983 2.2589018e-38 341 274
-0.035052639 0.71399999 -0.043815799 1.0516082e-38 292 275
-0.033753417 0.713 -0.043754432 1.1991571e-38 293 275
-0.032503292 0.713 -0.043754432 1.3191941e-38 294 275
-0.031253166 0.713 -0.043754432 1.4298649e-38 295 275
-0.029918881 0.71100003 -0.043631699 1.5768384e-38 296 275
-0.028631933 0.70999998 -0.043570329 1.5768384e-38 297 275
-0.027309919 0.708 -0.043447599 1.4667059e-38 298 275
-0.02603174 0.70700002 -0.043386232 1.4297916e-38 299 275
-0.024757065 0.70599997 -0.043324865 1.457451e-38 300 275
-0.023452586 0.704 -0.043202132 1.5127684e-38 301 275
-0.022218239 0.704 -0.043202132 1.4849315e-38 302 275
-0.020983893 0.704 -0.043202132 1.3743327e-38 303 275
-0.019749546 0.704 -0.043202132 1.2091359e-38 304 275
-0.018515198 0.704 -0.043202132 1.2921118e-38 305 275
-0.017280852 0.704 -0.043202132 1.5314965e-38 306 275
-0.016023712 0.70300001 -0.043140765 1.5683749e-38 307 275
-0.014791119 0.70300001 -0.043140765 1.5224208e-38 308 275
-0.013519952 0.70099998 -0.043018032 1.5132013e-38 309 275
-0.012290866 0.70099998 -0.043018032 1.5132015e-38 310 275
-0.011061779 0.70099998 -0.043018032 1.503982e-38 311 275
-0.0098326923 0.70099998 -0.043018032 1.3933109e-38 312 275
-0.0086036054 0.70099998 -0.043018032 1.1074686e-38 313 275
-0.0073745195 0.70099998 -0.043018032 7.3919026e-39 314 275
-0.0061454331 0.70099998 -0.043018032 7.8528794e-39 315 275
-0.0049163462 0.70099998 -0.043018032 9.6881586e-39 316 275
-0.0036872597 0.70099998 -0.043018032 1.0517918e-38 317 275
-0.0024581731 0.70099998 -0.043018032 1.0520066e-38 318 275
-0.0012290865 0.70099998 -0.043018032 1.0335675e-38 319 275
0 0.70300001 -0.043140765 9.6931991e-39 320 275
0.0012325933 0.70300001 -0.043140765 1.0430764e-38 321 275
0.0024651866 0.70300001 -0.043140765 1.1718986e-38 322 275
0.0036977797 0.70300001 -0.043140765 1.1534594e-38 323 275
0.0049303733 0.70300001 -0.043140765 1.0429685e-38 324 275
0.0061717331 0.704 -0.043202132 1.0245654e-38 325 275
0.0074060797 0.704 -0.043202132 1.1533519e-38 326 275
0.0086404262 0.704 -0.043202132 1.1256932e-38 327 275
0.0098747732 0.704 -0.043202132 1.2362541e-38 328 275
0.011109119 0.704 -0.043202132 1.2546572e-38 329 275
0.012378532 0.70599997 -0.043324865 1.2178866e-38 330 275
0.013635674 0.70700002 -0.043386232 1.208667e-38 331 275
0.01489632 0.708 -0.043447599 1.2361456e-38 332 275
0.016183265 0.70999998 -0.043570329 1.2085228e-38 333 275
0.01745268 0.71100003 -0.043631699 1.2175626e-38 334 275
0.018778199 0.71399999 -0.043815799 1.2267822e-38 335 275
0.020086186 0.71600002 -0.043938532 1.2085944e-38 336 275
0.021341572 0.71600002 -0.043938532 1.21785e-38 337 275
0.02262852 0.71700001 -0.043999899 1.3097197e-38 338 275
0.02388566 0.71700001 -0.043999899 1.6969413e-38 339 275
0.025212931 0.71899998 -0.044122629 2.0466354e-38 340 275
0.02647358 0.71899998 -0.044122629 2.2679049e-38 341 275
-0.035150826 0.71600002 -0.045193922 1.1435518e-38 292 276
-0.033800758 0.71399999 -0.045067675 1.1527713e-38 293 276
-0.032548878 0.71399999 -0.045067675 1.0981767e-38 294 276
-0.031296998 0.71399999 -0.045067675 1.1442745e-38 295 276
-0.029918881 0.71100003 -0.044878319 1.411175e-38 296 276
-0.028631933 0.70999998 -0.044815198 1.411175e-38 297 276
-0.027309919 0.708 -0.044688959 1.3561084e-38 298 276
-0.02603174 0.70700002 -0.044625837 1.4574876e-38 299 276
-0.024757065 0.70599997 -0.044562716 1.6691059e-38 300 276
-0.023519212 0.70599997 -0.044562716 1.6691059e-38 301 276
-0.022218239 0.704 -0.044436477 1.5956741e-38 302 276
-0.020983893 0.704 -0.044436477 1.577235e-38 303 276
-0.019805651 0.70599997 -0.044562716 1.4668523e-38 304 276
-0.018515198 0.704 -0.044436477 1.4668523e-38 305 276
-0.017280852 0.704 -0.044436477 1.5407523e-38 306 276
-0.016046507 0.704 -0.044436477 1.5407523e-38 307 276
-0.014791119 0.70300001 -0.04437336 1.5224211e-38 308 276
-0.013519952 0.70099998 -0.044247117 1.5132015e-38 309 276
-0.012290866 0.70099998 -0.044247117 1.5039464e-38 310 276
-0.011061779 0.70099998 -0.044247117 1.4763237e-38 311 276
-0.0098326923 0.70099998 -0.044247117 1.4116434e-38 312 276
-0.0086036054 0.70099998 -0.044247117 1.2549469e-38 313 276
-0.0073745195 0.70099998 -0.044247117 1.2457636e-38 314 276
-0.0061454331 0.70099998 -0.044247117 1.2549831e-38 315 276
-0.0049163462 0.70099998 -0.044247117 1.3192317e-38 316 276
-0.0036872597 0.70099998 -0.044247117 1.3192317e-38 317 276
-0.0024581731 0.70099998 -0.044247117 1.3101191e-38 318 276
-0.0012325933 0.70300001 -0.04437336 1.3101191e-38 319 276
0 0.70300001 -0.04437336 1.2732768e-38 320 276
0.0012325933 0.70300001 -0.04437336 1.2732768e-38 321 276
0.0024651866 0.70300001 -0.04437336 1.3375614e-38 322 276
0.0036977797 0.70300001 -0.04437336 1.3006831e-38 323 276
0.0049303733 0.70300001 -0.04437336 1.0979619e-38 324 276
0.0061717331 0.704 -0.044436477 9.7810759e-39 325 276
0.0074060797 0.704 -0.044436477 9.8772442e-39 326 276
0.0086404262 0.704 -0.044436477 9.8772442e-39 327 276
0.0098747732 0.704 -0.044436477 1.1166531e-38 328 276
0.011140679 0.70599997 -0.044562716 1.1350923e-38 329 276
0.012378532 0.70599997 -0.044562716 1.1903005e-38 330 276
0.013635674 0.70700002 -0.044625837 1.1810808e-38 331 276
0.01489632 0.708 -0.044688959 1.2451853e-38 332 276
0.016183265 0.70999998 -0.044815198 1.2451853e-38 333 276
0.017501773 0.713 -0.045004558 1.2084149e-38 334 276
0.018778199 0.71399999 -0.045067675 1.1991954e-38 335 276
0.020086186 0.71600002 -0.045193922 1.2178147e-38 336 276
0.021371379 0.71700001 -0.045257039 1.2362538e-38 337 276
0.02262852 0.71700001 -0.045257039 1.3280159e-38 338 276
0.02388566 0.71700001 -0.045257039 1.7244571e-38 339 276
0.025248 0.72000003 -0.045446403 2.0743308e-38 340 276
0.026510401 0.72000003 -0.045446403 2.2218796e-38 341 276
-0.035347197 0.72000003 -0.0467088 1.2906329e-38 292 277
-0.034084801 0.72000003 -0.0467088 1.1892536e-38 293 277
-0.032776814 0.71899998 -0.046643924 9.6942711e-39 294 277
-0.031296998 0.71399999 -0.046319555 8.4035322e-39 295 277
-0.029918881 0.71100003 -0.046124939 8.3192666e-39 296 277
-0.028631933 0.70999998 -0.046060063 9.0568316e-39 297 277
-0.027387066 0.70999998 -0.046060063 1.2638417e-38 298 277
-0.026068559 0.708 -0.045930319 1.5219895e-38 299 277
-0.024792133 0.70700002 -0.045865446 1.7336076e-38 300 277
-0.023552528 0.70700002 -0.045865446 1.7428273e-38 301 277
-0.022281358 0.70599997 -0.04580057 1.6602113e-38 302 277
-0.021043506 0.70599997 -0.04580057 1.6509559e-38 303 277
-0.019805651 0.70599997 -0.04580057 1.5683395e-38 304 277
-0.018567799 0.70599997 -0.04580057 1.5406807e-38 305 277
-0.017280852 0.704 -0.045670826 1.5040899e-38 306 277
-0.016046507 0.704 -0.045670826 1.5040899e-38 307 277
-0.014812159 0.704 -0.045670826 1.5499723e-38 308 277
-0.013577812 0.704 -0.045670826 1.5407526e-38 309 277
-0.012325933 0.70300001 -0.04560595 1.5039467e-38 310 277
-0.01109334 0.70300001 -0.04560595 1.476324e-38 311 277
-0.0098607466 0.70300001 -0.04560595 1.3840573e-38 312 277
-0.0086281532 0.70300001 -0.04560595 1.1812269e-38 313 277
-0.0073955595 0.70300001 -0.04560595 1.1813718e-38 314 277
-0.0061629666 0.70300001 -0.04560595 1.1998109e-38 315 277
-0.0049303733 0.70300001 -0.04560595 1.2640235e-38 316 277
-0.0036977797 0.70300001 -0.04560595 1.2640235e-38 317 277
-0.0024651866 0.70300001 -0.04560595 1.2640229e-38 318 277
-0.0012325933 0.70300001 -0.04560595 1.2548034e-38 319 277
0 0.70300001 -0.04560595 1.1904099e-38 320 277
0.0012343467 0.704 -0.045670826 1.1627153e-38 321 277
0.0024686933 0.704 -0.045670826 1.273133e-38 322 277
0.0037030398 0.704 -0.045670826 1.273133e-38 323 277
0.0049373866 0.704 -0.045670826 1.1898331e-38 324 277
0.0061717331 0.704 -0.045670826 1.1437355e-38 325 277
0.0074060797 0.704 -0.045670826 1.0979269e-38 326 277
0.0086404262 0.704 -0.045670826 1.0426095e-38 327 277
0.0099028256 0.70599997 -0.04580057 1.0705559e-38 328 277
0.011140679 0.70599997 -0.04580057 1.1258374e-38 329 277
0.012396066 0.70700002 -0.045865446 1.1902649e-38 330 277
0.013635674 0.70700002 -0.045865446 1.1902649e-38 331 277
0.014938398 0.70999998 -0.046060063 1.2083433e-38 332 277
0.016183265 0.70999998 -0.046060063 1.2083433e-38 333 277
0.017501773 0.713 -0.046254687 1.2174547e-38 334 277
0.018778199 0.71399999 -0.046319555 1.2358938e-38 335 277
0.020086186 0.71600002 -0.046449307 1.2820995e-38 336 277
0.021371379 0.71700001 -0.046514176 1.27288e-38 337 277
0.022691639 0.71899998 -0.046643924 1.28199e-38 338 277
0.023952285 0.71899998 -0.046643924 1.7429681e-38 339 277
0.025248 0.72000003 -0.0467088 2.0743308e-38 340 277
0.026510401 0.72000003 -0.0467088 2.1850015e-38 341 277
-0.035494477 0.72299999 -0.048171077 1.4566209e-38 292 278
-0.034084801 0.72000003 -0.0479712 1.1892536e-38 293 278
-0.0328224 0.72000003 -0.0479712 9.7850444e-39 294 278
-0.031296998 0.71399999 -0.047571439 7.2035667e-39 295 278
-0.030045118 0.71399999 -0.047571439 4.8180215e-39 296 278
-0.028672259 0.71100003 -0.047371563 4.2648477e-39 297 278
-0.027387066 0.70999998 -0.047304932 9.0446067e-39 298 278
-0.026142199 0.70999998 -0.047304932 1.2640235e-38 299 278
-0.024827199 0.708 -0.047171678 1.5586882e-38 300 278
-0.023552528 0.70700002 -0.047105055 1.6785426e-38 301 278
-0.022312919 0.70700002 -0.047105055 1.6880139e-38 302 278
-0.021043506 0.70599997 -0.047038425 1.6787944e-38 303 278
-0.019805651 0.70599997 -0.047038425 1.6235486e-38 304 278
-0.018567799 0.70599997 -0.047038425 1.5959259e-38 305 278
-0.017329946 0.70599997 -0.047038425 1.549972e-38 306 278
-0.016046507 0.704 -0.046905171 1.549972e-38 307 278
-0.014812159 0.704 -0.046905171 1.5499723e-38 308 278
-0.013577812 0.704 -0.046905171 1.5499723e-38 309 278
-0.012343466 0.704 -0.046905171 1.5499726e-38 310 278
-0.01109334 0.70300001 -0.046838548 1.540717e-38 311 278
-0.0098607466 0.70300001 -0.046838548 1.4207911e-38 312 278
-0.0086281532 0.70300001 -0.046838548 1.190302e-38 313 278
-0.0073955595 0.70300001 -0.046838548 1.1169421e-38 314 278
-0.0061629666 0.70300001 -0.046838548 1.1446008e-38 315 278
-0.0049303733 0.70300001 -0.046838548 1.1903396e-38 316 278
-0.0036977797 0.70300001 -0.046838548 1.1995591e-38 317 278
-0.0024651866 0.70300001 -0.046838548 1.1996309e-38 318 278
-0.0012343467 0.704 -0.046905171 1.1996309e-38 319 278
0 0.704 -0.046905171 1.1720797e-38 320 278
0.0012343467 0.704 -0.046905171 1.1813352e-38 321 278
0.0024686933 0.704 -0.046905171 1.2732778e-38 322 278
0.0037030398 0.704 -0.046905171 1.2364356e-38 323 278
0.0049373866 0.704 -0.046905171 1.1715739e-38 324 278
0.0061892662 0.70599997 -0.047038425 1.1162566e-38 325 278
0.0074271196 0.70599997 -0.047038425 1.0426092e-38 326 278
0.0086649731 0.70599997 -0.047038425 1.0518647e-38 327 278
0.0099028256 0.70599997 -0.047038425 1.0981065e-38 328 278
0.011140679 0.70599997 -0.047038425 1.1534238e-38 329 278
0.012396066 0.70700002 -0.047105055 1.1995919e-38 330 278
0.013654959 0.708 -0.047171678 1.1719334e-38 331 278
0.014938398 0.70999998 -0.047304932 1.1715369e-38 332 278
0.01620606 0.71100003 -0.047371563 1.1346228e-38 333 278
0.017501773 0.713 -0.047504812 1.2358941e-38 334 278
0.018778199 0.71399999 -0.047571439 1.2635528e-38 335 278
0.020086186 0.71600002 -0.047704693 1.2820995e-38 336 278
0.021371379 0.71700001 -0.04777132 1.2544407e-38 337 278
0.022691639 0.71899998 -0.04790457 1.2727701e-38 338 278
0.023952285 0.71899998 -0.04790457 1.7153091e-38 339 278
0.0251428 0.71700001 -0.04777132 2.0558196e-38 340 278
0.02639994 0.71700001 -0.04777132 2.1756739e-38 341 278
-0.035494477 0.72299999 -0.049438741 1.7239879e-38 292 279
-0.034179479 0.722 -0.04937036 1.447401e-38 293 279
-0.0328224 0.72000003 -0.0492336 1.0332432e-38 294 279
-0.031428497 0.71700001 -0.04902846 9.7792584e-39 295 279
-0.03012928 0.71600002 -0.048960082 1.106896e-38 296 279
-0.028752912 0.713 -0.048754938 5.906005e-39 297 279
-0.027425639 0.71100003 -0.048618179 6.5628973e-40 298 279
-0.026142199 0.70999998 -0.048549797 9.1196504e-42 299 279
-0.024827199 0.708 -0.048413038 1.4032098e-39 300 279
-0.023552528 0.70700002 -0.048344657 5.1832293e-39 301 279
-0.022312919 0.70700002 -0.048344657 1.006956e-38 302 279
-0.021073313 0.70700002 -0.048344657 1.3111657e-38 303 279
-0.019805651 0.70599997 -0.048276275 1.6142224e-38 304 279
-0.018567799 0.70599997 -0.048276275 1.6050028e-38 305 279
-0.017329946 0.70599997 -0.048276275 1.5591203e-38 306 279
-0.016092092 0.70599997 -0.048276275 1.5591203e-38 307 279
-0.014812159 0.704 -0.048139516 1.5499726e-38 308 279
-0.013577812 0.704 -0.048139516 1.540717e-38 309 279
-0.012343466 0.704 -0.048139516 1.5499726e-38 310 279
-0.011109119 0.704 -0.048139516 1.540717e-38 311 279
-0.0098747732 0.704 -0.048139516 1.4759284e-38 312 279
-0.0086281532 0.70300001 -0.048071139 1.3100121e-38 313 279
-0.0073955595 0.70300001 -0.048071139 1.1812997e-38 314 279
-0.0061629666 0.70300001 -0.048071139 1.1536408e-38 315 279
-0.0049303733 0.70300001 -0.048071139 1.2179624e-38 316 279
-0.0036977797 0.70300001 -0.048071139 1.2364374e-38 317 279
-0.0024686933 0.704 -0.048139516 1.1630403e-38 318 279
-0.0012343467 0.704 -0.048139516 1.144601e-38 319 279
0 0.704 -0.048139516 1.1814071e-38 320 279
0.0012343467 0.704 -0.048139516 1.1998463e-38 321 279
0.0024757064 0.70599997 -0.048276275 1.2455119e-38 322 279
0.0037135598 0.70599997 -0.048276275 1.2086695e-38 323 279
0.0049514128 0.70599997 -0.048276275 1.1902654e-38 324 279
0.0061892662 0.70599997 -0.048276275 1.199485e-38 325 279
0.0074271196 0.70599997 -0.048276275 1.2362909e-38 326 279
0.0086649731 0.70599997 -0.048276275 1.2270355e-38 327 279
0.0099028256 0.70599997 -0.048276275 1.1719339e-38 328 279
0.011140679 0.70599997 -0.048276275 1.190337e-38 329 279
0.012396066 0.70700002 -0.048344657 1.19952e-38 330 279
0.013654959 0.708 -0.048413038 1.19952e-38 331 279
0.014959441 0.71100003 -0.048618179 1.1810086e-38 332 279
0.01620606 0.71100003 -0.048618179 1.171789e-38 333 279
0.017526319 0.71399999 -0.048823316 1.208595e-38 334 279
0.0188308 0.71600002 -0.048960082 1.2362538e-38 335 279
0.020086186 0.71600002 -0.048960082 1.3004664e-38 336 279
0.021371379 0.71700001 -0.04902846 1.2819914e-38 337 279
0.022691639 0.71899998 -0.049165215 1.3003568e-38 338 279
0.023952285 0.71899998 -0.049165215 1.678359e-38 339 279
0.0251428 0.71700001 -0.04902846 2.0097941e-38 340 279
0.02639994 0.71700001 -0.04902846 2.1112452e-38 341 279
-0.034084801 0.72000003 -0.050496001 1.6503035e-38 293 280
-0.0328224 0.72000003 -0.050496001 1.3184373e-38 294 280
-0.031428497 0.71700001 -0.0502856 1.13401e-38 295 280
-0.03012928 0.71600002 -0.050215468 1.1527771e-38 296 280
-0.028793238 0.71399999 -0.050075196 8.3009236e-39 297 280
-0.027502786 0.713 -0.050005067 1.7611925e-39 298 280
-0.026179021 0.71100003 -0.049864799 5.5141095e-42 299 280
-0.024897331 0.70999998 -0.049794663 1.4993894e-43 300 280
-0.023585839 0.708 -0.049654398 1.9520088e-42 301 280
-0.022344479 0.708 -0.049654398 1.3106569e-39 302 280
-0.021103119 0.708 -0.049654398 8.1334936e-39 303 280
-0.019805651 0.70599997 -0.04951413 1.4762183e-38 304 280
-0.018567799 0.70599997 -0.04951413 1.5960721e-38 305 280
-0.017329946 0.70599997 -0.04951413 1.5867429e-38 306 280
-0.016092092 0.70599997 -0.04951413 1.5683398e-38 307 280
-0.014854239 0.70599997 -0.04951413 1.5499726e-38 308 280
-0.013577812 0.704 -0.049373865 1.5499726e-38 309 280
-0.012343466 0.704 -0.049373865 1.5499006e-38 310 280
-0.011109119 0.704 -0.049373865 1.540681e-38 311 280
-0.0098747732 0.704 -0.049373865 1.4483426e-38 312 280
-0.0086404262 0.704 -0.049373865 1.2547318e-38 313 280
-0.0074060797 0.704 -0.049373865 1.2088873e-38 314 280
-0.0061717331 0.704 -0.049373865 1.1720449e-38 315 280
-0.0049373866 0.704 -0.049373865 1.1537852e-38 316 280
-0.0037030398 0.704 -0.049373865 1.1998828e-38 317 280
-0.0024686933 0.704 -0.049373865 1.2273608e-38 318 280
-0.0012343467 0.704 -0.049373865 1.2088858e-38 319 280
0 0.70599997 -0.04951413 1.2547668e-38 320 280
0.0012378532 0.70599997 -0.04951413 1.2363275e-38 321 280
0.0024757064 0.70599997 -0.04951413 1.1164731e-38 322 280
0.0037135598 0.70599997 -0.04951413 1.1349481e-38 323 280
0.0049514128 0.70599997 -0.04951413 1.300757e-38 324 280
0.0061892662 0.70599997 -0.04951413 1.2823179e-38 325 280
0.0074271196 0.70599997 -0.04951413 1.2821011e-38 326 280
0.0086649731 0.70599997 -0.04951413 1.2636619e-38 327 280
0.0099028256 0.70599997 -0.04951413 1.2452588e-38 328 280
0.011156459 0.70700002 -0.049584266 1.2360033e-38 329 280
0.0124136 0.708 -0.049654398 1.1902652e-38 330 280
0.013693533 0.70999998 -0.049794663 1.1902652e-38 331 280
0.014959441 0.71100003 -0.049864799 1.1903002e-38 332 280
0.016251646 0.713 -0.050005067 1.1810805e-38 333 280
0.017526319 0.71399999 -0.050075196 1.2452936e-38 334 280
0.0188308 0.71600002 -0.050215468 1.2636967e-38 335 280
0.020114239 0.71700001 -0.0502856 1.2546206e-38 336 280
0.021371379 0.71700001 -0.0502856 1.1900837e-38 337 280
0.022691639 0.71899998 -0.050425861 1.2451118e-38 338 280
0.023952285 0.71899998 -0.050425861 1.6784312e-38 339 280
0.0251428 0.71700001 -0.0502856 2.0282335e-38 340 280
0.02639994 0.71700001 -0.0502856 2.1112096e-38 341 280
-0.034084801 0.72000003 -0.051758397 1.696546e-38 293 281
-0.0328224 0.72000003 -0.051758397 1.6777109e-38 294 281
-0.031516165 0.71899998 -0.05168651 1.5394174e-38 295 281
-0.030171359 0.71700001 -0.051542737 1.2449322e-38 296 281
-0.028873893 0.71600002 -0.051470853 9.1302793e-39 297 281
-0.02754136 0.71399999 -0.05132708 4.2461165e-39 298 281
-0.026179021 0.71100003 -0.051111419 2.3100083e-39 299 281
-0.024897331 0.70999998 -0.051039528 3.1326209e-39 300 281
-0.023585839 0.708 -0.050895758 2.118469e-39 301 281
-0.022344479 0.708 -0.050895758 9.8399178e-42 302 281
-0.021103119 0.708 -0.050895758 1.7676792e-39 303 281
-0.01986176 0.708 -0.050895758 1.1723686e-38 304 281
-0.018594101 0.70700002 -0.050823875 1.5319666e-38 305 281
-0.017329946 0.70599997 -0.050751984 1.6051458e-38 306 281
-0.016092092 0.70599997 -0.050751984 1.5867066e-38 307 281
-0.014854239 0.70599997 -0.050751984 1.5591919e-38 308 281
-0.013616386 0.70599997 -0.050751984 1.5499723e-38 309 281
-0.012378532 0.70599997 -0.050751984 1.5316411e-38 310 281
-0.011109119 0.704 -0.050608214 1.5132018e-38 311 281
-0.0098747732 0.704 -0.050608214 1.4300111e-38 312 281
-0.0086404262 0.704 -0.050608214 1.1442045e-38 313 281
-0.0074060797 0.704 -0.050608214 9.7875779e-39 314 281
-0.0061717331 0.704 -0.050608214 1.061734e-38 315 281
-0.0049373866 0.704 -0.050608214 1.1535339e-38 316 281
-0.0037030398 0.704 -0.050608214 1.2088154e-38 317 281
-0.0024686933 0.704 -0.050608214 1.2363649e-38 318 281
-0.0012378532 0.70599997 -0.050751984 1.2548039e-38 319 281
0 0.70599997 -0.050751984 1.2640229e-38 320 281
0.0012378532 0.70599997 -0.050751984 1.2271807e-38 321 281
0.0024757064 0.70599997 -0.050751984 1.1992342e-38 322 281
0.0037135598 0.70599997 -0.050751984 1.2361484e-38 323 281
0.0049514128 0.70599997 -0.050751984 1.2179974e-38 324 281
0.0061892662 0.70599997 -0.050751984 1.2179974e-38 325 281
0.0074271196 0.70599997 -0.050751984 1.2730264e-38 326 281
0.0086649731 0.70599997 -0.050751984 1.2269286e-38 327 281
0.0099168532 0.70700002 -0.050823875 1.2267843e-38 328 281
0.011156459 0.70700002 -0.050823875 1.2267843e-38 329 281
0.012448666 0.70999998 -0.051039528 1.226784e-38 330 281
0.01371282 0.71100003 -0.051111419 1.2360035e-38 331 281
0.015001519 0.713 -0.051255193 1.2085244e-38 332 281
0.016274439 0.71399999 -0.05132708 1.2085244e-38 333 281
0.017575413 0.71600002 -0.051470853 1.2361462e-38 334 281
0.0188308 0.71600002 -0.051470853 1.2361462e-38 335 281
0.020114239 0.71700001 -0.051542737 1.2819916e-38 336 281
0.021371379 0.71700001 -0.051542737 1.1805764e-38 337 281
0.022691639 0.71899998 -0.05168651 1.1806471e-38 338 281
0.023952285 0.71899998 -0.05168651 1.6508448e-38 339 281
0.025212931 0.71899998 -0.05168651 2.0283054e-38 340 281
0.02647358 0.71899998 -0.05168651 2.1020619e-38 341 281
-0.034084801 0.72000003 -0.053020801 1.7334966e-38 293 282
-0.0328224 0.72000003 -0.053020801 1.7241324e-38 294 282
-0.031516165 0.71899998 -0.05294716 1.6595955e-38 295 282
-0.030171359 0.71700001 -0.052799881 1.5212296e-38 296 282
-0.028873893 0.71600002 -0.052726239 1.318399e-38 297 282
-0.02754136 0.71399999 -0.052578956 9.0366585e-39 298 282
-0.026179021 0.71100003 -0.052358042 6.7317664e-39 299 282
-0.024897331 0.70999998 -0.052284397 4.7924744e-39 300 282
-0.023585839 0.708 -0.052137118 2.3035511e-39 301 282
-0.022344479 0.708 -0.052137118 5.4972939e-42 302 282
-0.021103119 0.708 -0.052137118 4.7367812e-40 303 282
-0.01986176 0.708 -0.052137118 1.1992344e-38 304 282
-0.018594101 0.70700002 -0.05206348 1.6694323e-38 305 282
-0.017354494 0.70700002 -0.05206348 1.5959981e-38 306 282
-0.016092092 0.70599997 -0.051989835 1.55912e-38 307 282
-0.014854239 0.70599997 -0.051989835 1.5591203e-38 308 282
-0.013616386 0.70599997 -0.051989835 1.5591203e-38 309 282
-0.012378532 0.70599997 -0.051989835 1.5499723e-38 310 282
-0.011140679 0.70599997 -0.051989835 1.5223495e-38 311 282
-0.0099028256 0.70599997 -0.051989835 1.4392659e-38 312 282
-0.0086404262 0.704 -0.051842559 1.2272159e-38 313 282
-0.0074060797 0.704 -0.051842559 1.1349496e-38 314 282
-0.0061717331 0.704 -0.051842559 1.1994865e-38 315 282
-0.0049373866 0.704 -0.051842559 1.2178187e-38 316 282
-0.0037030398 0.704 -0.051842559 1.2546611e-38 317 282
-0.0024757064 0.70599997 -0.051989835 1.2548036e-38 318 282
-0.0012378532 0.70599997 -0.051989835 1.2917179e-38 319 282
0 0.70599997 -0.051989835 1.3009372e-38 320 282
0.0012378532 0.70599997 -0.051989835 1.2640229e-38 321 282
