# .PCD v.7 - Point Cloud Data file format
FIELDS x y z rgb imX imY
SIZE 4 4 4 4 4 4
TYPE F F F F F F
COUNT 1 1 1 1 1 1
WIDTH 832
HEIGHT 1
VIEWPOINT 0 0 0 1 0 0 0
POINTS 832
DATA ascii
-0.0097625591 0.69599998 -0.034168959 1.2181059e-38 312 268
-0.0085422397 0.69599998 -0.034168959 1.1996309e-38 313 268
-0.0073219193 0.69599998 -0.034168959 1.190662e-38 314 268
-0.0061015999 0.69599998 -0.034168959 1.172187e-38 315 268
-0.0048882933 0.69700003 -0.034218054 1.1443844e-38 316 268
-0.00366622 0.69700003 -0.034218054 1.1259093e-38 317 268
-0.0024441467 0.69700003 -0.034218054 1.153604e-38 318 268
-0.0012220733 0.69700003 -0.034218054 1.1812266e-38 319 268
0 0.69700003 -0.034218054 1.1719705e-38 320 268
0.0012220733 0.69700003 -0.034218054 1.1627509e-38 321 268
0.0024441467 0.69700003 -0.034218054 1.1811898e-38 322 268
0.00366622 0.69700003 -0.034218054 1.1996648e-38 323 268
0.0048882933 0.69700003 -0.034218054 1.236326e-38 324 268
0.006119133 0.69800001 -0.034267146 1.1902282e-38 325 268
0.0073429602 0.69800001 -0.034267146 1.2269992e-38 326 268
0.0085667865 0.69800001 -0.034267146 1.2638415e-38 327 268
0.0098186666 0.69999999 -0.034365334 1.2821011e-38 328 268
0.011045999 0.69999999 -0.034365334 1.2452588e-38 329 268
0.012290866 0.70099998 -0.034414422 1.2268906e-38 330 268
0.013577812 0.704 -0.034561705 1.2268906e-38 331 268
0.014854239 0.70599997 -0.034659892 1.2085225e-38 332 268
0.016114887 0.70700002 -0.034708988 1.2361812e-38 333 268
0.017354494 0.70700002 -0.034708988 1.3741507e-38 334 268
0.018672999 0.70999998 -0.034856264 1.3741507e-38 335 268
0.019917866 0.70999998 -0.034856264 1.3649308e-38 336 268
0.021162732 0.70999998 -0.034856264 1.4110285e-38 337 268
0.022439159 0.71100003 -0.034905359 1.6598106e-38 338 268
0.023685781 0.71100003 -0.034905359 2.074691e-38 339 268
-0.034708988 0.70700002 -0.035948593 1.5310625e-38 292 269
-0.033469379 0.70700002 -0.035948593 1.4850005e-38 293 269
-0.032184184 0.70599997 -0.035897743 1.71513e-38 294 269
-0.030946331 0.70599997 -0.035897743 1.7612277e-38 295 269
-0.029708479 0.70599997 -0.035897743 1.6962181e-38 296 269
-0.028389972 0.704 -0.035796054 1.2075454e-38 297 269
-0.027117053 0.70300001 -0.035745207 1.1891073e-38 298 269
-0.025773998 0.69999999 -0.035592664 1.7791593e-38 299 269
-0.024546666 0.69999999 -0.035592664 1.6603533e-38 300 269
-0.023252707 0.69800001 -0.035490975 1.5773772e-38 301 269
-0.02202888 0.69800001 -0.035490975 1.3930955e-38 302 269
-0.020805053 0.69800001 -0.035490975 1.2640217e-38 303 269
-0.019581227 0.69800001 -0.035490975 1.2457273e-38 304 269
-0.0183574 0.69800001 -0.035490975 1.2641664e-38 305 269
-0.017109027 0.69700003 -0.035440128 1.2824979e-38 306 269
-0.015886955 0.69700003 -0.035440128 1.3101568e-38 307 269
-0.01466488 0.69700003 -0.035440128 1.3007938e-38 308 269
-0.013442807 0.69700003 -0.035440128 1.2178538e-38 309 269
-0.012220734 0.69700003 -0.035440128 1.1260544e-38 310 269
-0.010982879 0.69599998 -0.035389278 1.1721523e-38 311 269
-0.0097625591 0.69599998 -0.035389278 1.2181059e-38 312 269
-0.0085422397 0.69599998 -0.035389278 1.2181059e-38 313 269
-0.0073219193 0.69599998 -0.035389278 1.2088858e-38 314 269
-0.0061103669 0.69700003 -0.035440128 1.2088858e-38 315 269
-0.0048953067 0.69800001 -0.035490975 1.1443488e-38 316 269
-0.0036714801 0.69800001 -0.035490975 1.0890673e-38 317 269
-0.0024476533 0.69800001 -0.035490975 1.12573e-38 318 269
-0.0012238267 0.69800001 -0.035490975 1.1441692e-38 319 269
0 0.69800001 -0.035490975 1.190302e-38 320 269
0.0012238267 0.69800001 -0.035490975 1.2179607e-38 321 269
0.0024476533 0.69800001 -0.035490975 1.1812973e-38 322 269
0.0036714801 0.69800001 -0.035490975 1.1905168e-38 323 269
0.0048953067 0.69800001 -0.035490975 1.2179238e-38 324 269
0.006119133 0.69800001 -0.035490975 1.2363628e-38 325 269
0.0073639993 0.69999999 -0.035592664 1.2178159e-38 326 269
0.0085913334 0.69999999 -0.035592664 1.2270355e-38 327 269
0.0098186666 0.69999999 -0.035592664 1.2453304e-38 328 269
0.011061779 0.70099998 -0.035643511 1.2268912e-38 329 269
0.012290866 0.70099998 -0.035643511 1.2361106e-38 330 269
0.013616386 0.70599997 -0.035897743 1.2453302e-38 331 269
0.014854239 0.70599997 -0.035897743 1.2638402e-38 332 269
0.016114887 0.70700002 -0.035948593 1.309938e-38 333 269
0.017379038 0.708 -0.03599944 1.4293597e-38 334 269
0.018672999 0.70999998 -0.036101133 1.3648228e-38 335 269
0.019917866 0.70999998 -0.036101133 1.3187604e-38 336 269
0.021192541 0.71100003 -0.036151983 1.3832974e-38 337 269
0.022439159 0.71100003 -0.036151983 1.6873967e-38 338 269
0.02378572 0.71399999 -0.036304519 2.1022771e-38 339 269
0.025037598 0.71399999 -0.036304519 2.2218425e-38 340 269
-0.036101133 0.70999998 -0.037345998 1.6781052e-38 291 270
-0.034708988 0.70700002 -0.037188202 1.6044227e-38 292 270
-0.033469379 0.70700002 -0.037188202 1.5859834e-38 293 270
-0.032229774 0.70700002 -0.037188202 1.5219524e-38 294 270
-0.030946331 0.70599997 -0.037135597 1.6233674e-38 295 270
-0.029708479 0.70599997 -0.037135597 1.7243122e-38 296 270
-0.028389972 0.704 -0.037030395 1.5860187e-38 297 270
-0.027117053 0.70300001 -0.036977798 1.3928748e-38 298 270
-0.025884461 0.70300001 -0.036977798 1.6141445e-38 299 270
-0.024546666 0.69999999 -0.036819998 1.5960682e-38 300 270
-0.023252707 0.69800001 -0.0367148 1.5407508e-38 301 270
-0.02202888 0.69800001 -0.0367148 1.3838404e-38 302 270
-0.020805053 0.69800001 -0.0367148 1.2179241e-38 303 270
-0.019637333 0.69999999 -0.036819998 1.2181409e-38 304 270
-0.0183574 0.69800001 -0.0367148 1.2734583e-38 305 270
-0.017133573 0.69800001 -0.0367148 1.3099768e-38 306 270
-0.015909746 0.69800001 -0.0367148 1.2730986e-38 307 270
-0.01468592 0.69800001 -0.0367148 1.208886e-38 308 270
-0.013462093 0.69800001 -0.0367148 1.208886e-38 309 270
-0.012220734 0.69700003 -0.036662199 1.1813352e-38 310 270
-0.01099866 0.69700003 -0.036662199 1.1997384e-38 311 270
-0.0097765867 0.69700003 -0.036662199 1.2549831e-38 312 270
-0.0085545136 0.69700003 -0.036662199 1.2273605e-38 313 270
-0.00733244 0.69700003 -0.036662199 1.2364358e-38 314 270
-0.006119133 0.69800001 -0.0367148 1.254839e-38 315 270
-0.0048953067 0.69800001 -0.0367148 1.2548387e-38 316 270
-0.0036714801 0.69800001 -0.0367148 1.1995213e-38 317 270
-0.0024476533 0.69800001 -0.0367148 1.2085614e-38 318 270
-0.0012238267 0.69800001 -0.0367148 1.2177809e-38 319 270
0 0.69800001 -0.0367148 1.2364356e-38 320 270
0.0012238267 0.69800001 -0.0367148 1.2364356e-38 321 270
0.0024476533 0.69800001 -0.0367148 1.1995569e-38 322 270
0.0036714801 0.69800001 -0.0367148 1.1718983e-38 323 270
0.0048953067 0.69800001 -0.0367148 1.1902298e-38 324 270
0.0061366665 0.69999999 -0.036819998 1.2179244e-38 325 270
0.0073639993 0.69999999 -0.036819998 1.2178162e-38 326 270
0.0085913334 0.69999999 -0.036819998 1.2270358e-38 327 270
0.0098186666 0.69999999 -0.036819998 1.273025e-38 328 270
0.011061779 0.70099998 -0.036872596 1.2637696e-38 329 270
0.012325933 0.70300001 -0.036977798 1.2731319e-38 330 270
0.013616386 0.70599997 -0.037135597 1.2823516e-38 331 270
0.01487528 0.70700002 -0.037188202 1.3007182e-38 332 270
0.01613768 0.708 -0.0372408 1.2914985e-38 333 270
0.017428132 0.70999998 -0.037345998 1.3739708e-38 334 270
0.0186993 0.71100003 -0.037398599 1.3463121e-38 335 270
0.01994592 0.71100003 -0.037398599 1.3002849e-38 336 270
0.021192541 0.71100003 -0.037398599 1.383261e-38 337 270
0.022502279 0.713 -0.037503798 1.6873964e-38 338 270
0.02378572 0.71399999 -0.037556399 2.1207519e-38 339 270
0.025037598 0.71399999 -0.037556399 2.2218425e-38 340 270
-0.036101133 0.70999998 -0.038590867 1.7426066e-38 291 271
-0.034856264 0.70999998 -0.038590867 1.6504485e-38 292 271
-0.033516716 0.708 -0.038482159 1.6227539e-38 293 271
-0.032229774 0.70700002 -0.038427804 1.4022778e-38 294 271
-0.030946331 0.70599997 -0.038373452 1.4299365e-38 295 271
-0.029708479 0.70599997 -0.038373452 1.6508463e-38 296 271
-0.028389972 0.704 -0.038264744 1.7061637e-38 297 271
-0.027117053 0.70300001 -0.038210396 1.6142909e-38 298 271
-0.025884461 0.70300001 -0.038210396 1.6142909e-38 299 271
-0.024581732 0.70099998 -0.038101684 1.5592258e-38 300 271
-0.023319334 0.69999999 -0.038047329 1.5407508e-38 301 271
-0.022091998 0.69999999 -0.038047329 1.3379949e-38 302 271
-0.020864666 0.69999999 -0.038047329 1.1628232e-38 303 271
-0.019637333 0.69999999 -0.038047329 1.2182131e-38 304 271
-0.018409999 0.69999999 -0.038047329 1.264275e-38 305 271
-0.017182667 0.69999999 -0.038047329 1.3190522e-38 306 271
-0.015909746 0.69800001 -0.037938625 1.2452598e-38 307 271
-0.01468592 0.69800001 -0.037938625 1.153604e-38 308 271
-0.013462093 0.69800001 -0.037938625 1.1904462e-38 309 271
-0.012238266 0.69800001 -0.037938625 1.2455475e-38 310 271
-0.01101444 0.69800001 -0.037938625 1.2639866e-38 311 271
-0.0097906133 0.69800001 -0.037938625 1.2824613e-38 312 271
-0.0085667865 0.69800001 -0.037938625 1.2639863e-38 313 271
-0.0073429602 0.69800001 -0.037938625 1.2548387e-38 314 271
-0.006119133 0.69800001 -0.037938625 1.2364356e-38 315 271
-0.0048953067 0.69800001 -0.037938625 1.2639863e-38 316 271
-0.0036714801 0.69800001 -0.037938625 1.2455471e-38 317 271
-0.0024476533 0.69800001 -0.037938625 1.2177806e-38 318 271
-0.0012238267 0.69800001 -0.037938625 1.2177806e-38 319 271
0 0.69800001 -0.037938625 1.2731336e-38 320 271
0.0012238267 0.69800001 -0.037938625 1.2454749e-38 321 271
0.0024476533 0.69800001 -0.037938625 1.2360756e-38 322 271
0.0036714801 0.69800001 -0.037938625 1.2084528e-38 323 271
0.0048953067 0.69800001 -0.037938625 1.1994494e-38 324 271
0.0061366665 0.69999999 -0.038047329 1.208669e-38 325 271
0.0073639993 0.69999999 -0.038047329 1.2177087e-38 326 271
0.0085913334 0.69999999 -0.038047329 1.2638064e-38 327 271
0.0098326923 0.70099998 -0.038101684 1.3008279e-38 328 271
0.011061779 0.70099998 -0.038101684 1.3008279e-38 329 271
0.012343466 0.704 -0.038264744 1.3191941e-38 330 271
0.013616386 0.70599997 -0.038373452 1.2915715e-38 331 271
0.01487528 0.70700002 -0.038427804 1.2638405e-38 332 271
0.01613768 0.708 -0.038482159 1.2453655e-38 333 271
0.017428132 0.70999998 -0.038590867 1.2912112e-38 334 271
0.0186993 0.71100003 -0.038645219 1.2819916e-38 335 271
0.020002026 0.713 -0.038753927 1.2912451e-38 336 271
0.021252153 0.713 -0.038753927 1.3742213e-38 337 271
0.022596961 0.71600002 -0.038916986 1.6965441e-38 338 271
0.023952285 0.71899998 -0.039080046 2.1390831e-38 339 271
0.025212931 0.71899998 -0.039080046 2.2126951e-38 340 271
-0.039080046 0.71899998 -0.040340692 2.0835856e-38 289 272
-0.037714198 0.71700001 -0.040228479 1.779629e-38 290 272
-0.036304519 0.71399999 -0.040060159 1.6413356e-38 291 272
-0.034856264 0.70999998 -0.039835732 1.6596681e-38 292 272
-0.033516716 0.708 -0.039723519 1.6320094e-38 293 272
-0.03227536 0.708 -0.039723519 1.4021336e-38 294 272
-0.030990168 0.70700002 -0.039667413 1.3744749e-38 295 272
-0.029708479 0.70599997 -0.039611302 1.475999e-38 296 272
-0.028389972 0.704 -0.039499093 1.6142925e-38 297 272
-0.027155625 0.704 -0.039499093 1.5868489e-38 298 272
-0.025884461 0.70300001 -0.039442986 1.5684099e-38 299 272
-0.024581732 0.70099998 -0.039330769 1.5500425e-38 300 272
-0.023352645 0.70099998 -0.039330769 1.5408229e-38 301 272
-0.022123558 0.70099998 -0.039330769 1.2369756e-38 302 272
-0.020894472 0.70099998 -0.039330769 9.6960829e-39 303 272
-0.019665385 0.70099998 -0.039330769 1.0712759e-38 304 272
-0.018436298 0.70099998 -0.039330769 1.237228e-38 305 272
-0.017182667 0.69999999 -0.039274666 1.4479456e-38 306 272
-0.015955333 0.69999999 -0.039274666 1.3926284e-38 307 272
-0.01468592 0.69800001 -0.039162453 1.3560744e-38 308 272
-0.013462093 0.69800001 -0.039162453 1.319232e-38 309 272
-0.012238266 0.69800001 -0.039162453 1.2915377e-38 310 272
-0.01101444 0.69800001 -0.039162453 1.2915377e-38 311 272
-0.0097906133 0.69800001 -0.039162453 1.2824979e-38 312 272
-0.0085667865 0.69800001 -0.039162453 1.2732784e-38 313 272
-0.0073429602 0.69800001 -0.039162453 1.254839e-38 314 272
-0.006119133 0.69800001 -0.039162453 1.2364358e-38 315 272
-0.0049093333 0.69999999 -0.039274666 1.2548387e-38 316 272
-0.0036714801 0.69800001 -0.039162453 1.2548387e-38 317 272
-0.0024476533 0.69800001 -0.039162453 1.2731336e-38 318 272
-0.0012238267 0.69800001 -0.039162453 1.2823532e-38 319 272
0 0.69800001 -0.039162453 1.3008279e-38 320 272
0.0012238267 0.69800001 -0.039162453 1.2731333e-38 321 272
0.0024476533 0.69800001 -0.039162453 1.2912843e-38 322 272
0.0036714801 0.69800001 -0.039162453 1.318907e-38 323 272
0.0048953067 0.69800001 -0.039162453 1.2914281e-38 324 272
0.0061366665 0.69999999 -0.039274666 1.1900131e-38 325 272
0.0073639993 0.69999999 -0.039274666 1.0704111e-38 326 272
0.0086036054 0.70099998 -0.039330769 1.0427164e-38 327 272
0.0098607466 0.70300001 -0.039442986 1.0524755e-38 328 272
0.01109334 0.70300001 -0.039442986 1.1538907e-38 329 272
0.012343466 0.704 -0.039499093 1.217851e-38 330 272
0.013616386 0.70599997 -0.039611302 1.1810086e-38 331 272
0.01487528 0.70700002 -0.039667413 1.1809004e-38 332 272
0.01613768 0.708 -0.039723519 1.1624973e-38 333 272
0.01745268 0.71100003 -0.039891839 1.1625326e-38 334 272
0.018751899 0.713 -0.040004052 1.1625326e-38 335 272
0.020002026 0.713 -0.040004052 1.2176327e-38 336 272
0.021341572 0.71600002 -0.040172372 1.3835847e-38 337 272
0.02262852 0.71700001 -0.040228479 1.7426066e-38 338 272
0.02388566 0.71700001 -0.040228479 2.1298282e-38 339 272
0.0251428 0.71700001 -0.040228479 2.1943283e-38 340 272
-0.039080046 0.71899998 -0.041601337 2.0652547e-38 289 273
-0.037714198 0.71700001 -0.041485619 1.6874341e-38 290 273
-0.036304519 0.71399999 -0.041312039 1.5399211e-38 291 273
-0.034905359 0.71100003 -0.041138459 1.6505931e-38 292 273
-0.033611398 0.70999998 -0.041080594 1.7427527e-38 293 273
-0.03227536 0.708 -0.040964879 1.5770886e-38 294 273
-0.030990168 0.70700002 -0.040907022 1.4756373e-38 295 273
-0.029750559 0.70700002 -0.040907022 1.4114255e-38 296 273
-0.028470624 0.70599997 -0.040849157 1.549719e-38 297 273
-0.027155625 0.704 -0.040733438 1.6235473e-38 298 273
-0.025884461 0.70300001 -0.040675577 1.6143278e-38 299 273
-0.024651866 0.70300001 -0.040675577 1.6051079e-38 300 273
-0.023352645 0.70099998 -0.040559858 1.6143275e-38 301 273
-0.022123558 0.70099998 -0.040559858 1.2185372e-38 302 273
-0.020894472 0.70099998 -0.040559858 7.4833948e-39 303 273
-0.019665385 0.70099998 -0.040559858 7.5824274e-39 304 273
-0.018436298 0.70099998 -0.040559858 1.0624882e-38 305 273
-0.017182667 0.69999999 -0.040502001 1.3925563e-38 306 273
-0.015955333 0.69999999 -0.040502001 1.4109954e-38 307 273
-0.014727999 0.69999999 -0.040502001 1.4480539e-38 308 273
-0.013500666 0.69999999 -0.040502001 1.4756766e-38 309 273
-0.012238266 0.69800001 -0.040386278 1.466457e-38 310 273
-0.01101444 0.69800001 -0.040386278 1.4203592e-38 311 273
-0.0097906133 0.69800001 -0.040386278 1.2918624e-38 312 273
-0.0085667865 0.69800001 -0.040386278 1.2181059e-38 313 273
-0.0073429602 0.69800001 -0.040386278 1.2274326e-38 314 273
-0.0061366665 0.69999999 -0.040502001 1.2827141e-38 315 273
-0.0049093333 0.69999999 -0.040502001 1.1997731e-38 316 273
-0.0036714801 0.69800001 -0.040386278 1.1444916e-38 317 273
-0.0024476533 0.69800001 -0.040386278 1.1906614e-38 318 273
-0.0012273333 0.69999999 -0.040502001 1.2275396e-38 319 273
0 0.69999999 -0.040502001 1.2454749e-38 320 273
0.0012273333 0.69999999 -0.040502001 1.2085967e-38 321 273
0.0024546667 0.69999999 -0.040502001 1.3279821e-38 322 273
0.0036819996 0.69999999 -0.040502001 1.309579e-38 323 273
0.0049093333 0.69999999 -0.040502001 1.2084152e-38 324 273
0.0061454331 0.70099998 -0.040559858 1.0332435e-38 325 273
0.0073745195 0.70099998 -0.040559858 8.6776052e-39 326 273
0.0086036054 0.70099998 -0.040559858 8.4006596e-39 327 273
0.0098607466 0.70300001 -0.040675577 7.6728013e-39 328 273
0.011109119 0.704 -0.040733438 1.0530866e-38 329 273
0.012343466 0.704 -0.040733438 1.21785e-38 330 273
0.013616386 0.70599997 -0.040849157 1.1901553e-38 331 273
0.01487528 0.70700002 -0.040907022 1.2084146e-38 332 273
0.01613768 0.708 -0.040964879 1.180792e-38 333 273
0.01745268 0.71100003 -0.041138459 1.2449692e-38 334 273
0.018751899 0.713 -0.041254178 1.2449692e-38 335 273
0.020030079 0.71399999 -0.041312039 1.2450039e-38 336 273
0.021371379 0.71700001 -0.041485619 1.4386146e-38 337 273
0.02262852 0.71700001 -0.041485619 1.7886688e-38 338 273
0.02388566 0.71700001 -0.041485619 2.1574873e-38 339 273
0.025212931 0.71899998 -0.041601337 2.2402462e-38 340 273
-0.039134402 0.72000003 -0.042921603 2.092913e-38 289 274
-0.037714198 0.71700001 -0.042742759 1.5676519e-38 290 274
-0.036406212 0.71600002 -0.042683143 1.355602e-38 291 274
-0.035003547 0.713 -0.042504307 1.6048558e-38 292 274
-0.033658739 0.71100003 -0.042385083 1.770844e-38 293 274
-0.032366529 0.70999998 -0.042325463 1.8074344e-38 294 274
-0.031034 0.708 -0.042206239 1.7428975e-38 295 274
-0.029750559 0.70700002 -0.042146627 1.6601379e-38 296 274
-0.028470624 0.70599997 -0.042087011 1.6601379e-38 297 274
-0.027155625 0.704 -0.041967787 1.5959612e-38 298 274
-0.025884461 0.70300001 -0.041908171 1.5959612e-38 299 274
-0.024651866 0.70300001 -0.041908171 1.6235839e-38 300 274
-0.023419274 0.70300001 -0.041908171 1.6051808e-38 301 274
-0.022123558 0.70099998 -0.041788943 1.3012963e-38 302 274
-0.020894472 0.70099998 -0.041788943 8.7719658e-39 303 274
-0.019721493 0.70300001 -0.041908171 7.5719961e-39 304 274
-0.018436298 0.70099998 -0.041788943 7.3872461e-39 305 274
-0.017207211 0.70099998 -0.041788943 9.3114657e-39 306 274
-0.015978126 0.70099998 -0.041788943 1.1063183e-38 307 274
-0.014727999 0.69999999 -0.041729331 1.0977451e-38 308 274
-0.013500666 0.69999999 -0.041729331 1.1715016e-38 309 274
-0.012273333 0.69999999 -0.041729331 1.2727743e-38 310 274
-0.01101444 0.69800001 -0.041610107 1.3280917e-38 311 274
-0.0097906133 0.69800001 -0.041610107 1.0340749e-38 312 274
-0.0085913334 0.69999999 -0.041729331 9.2347601e-39 313 274
-0.0073639993 0.69999999 -0.041729331 1.0525849e-38 314 274
-0.0061366665 0.69999999 -0.041729331 1.2093176e-38 315 274
-0.0049093333 0.69999999 -0.041729331 1.0984301e-38 316 274
-0.0036714801 0.69800001 -0.041610107 7.7578125e-39 317 274
-0.0024476533 0.69800001 -0.041610107 5.0992747e-39 318 274
-0.0012273333 0.69999999 -0.041729331 5.0992747e-39 319 274
0 0.69999999 -0.041729331 6.748013e-39 320 274
0.0012273333 0.69999999 -0.041729331 5.7338611e-39 321 274
0.0024546667 0.69999999 -0.041729331 1.0046883e-38 322 274
0.0036819996 0.69999999 -0.041729331 1.0507861e-38 323 274
0.0049163462 0.70099998 -0.041788943 1.106353e-38 324 274
0.0061454331 0.70099998 -0.041788943 1.106353e-38 325 274
0.0073745195 0.70099998 -0.041788943 1.079666e-38 326 274
0.0086281532 0.70300001 -0.041908171 1.2087399e-38 327 274
0.0098607466 0.70300001 -0.041908171 1.1537459e-38 328 274
0.011109119 0.704 -0.041967787 1.1722209e-38 329 274
0.012378532 0.70599997 -0.042087011 1.1625326e-38 330 274
0.013616386 0.70599997 -0.042087011 1.1533131e-38 331 274
0.01487528 0.70700002 -0.042146627 1.2266377e-38 332 274
0.016183265 0.70999998 -0.042325463 1.2450768e-38 333 274
0.01745268 0.71100003 -0.042385083 1.2727351e-38 334 274
0.018778199 0.71399999 -0.042563915 1.3096493e-38 335 274
0.020030079 0.71399999 -0.042563915 1.3372354e-38 336 274
0.021371379 0.71700001 -0.042742759 1.493932e-38 337 274
0.02262852 0.71700001 -0.042742759 1.8346946e-38 338 274
0.02388566 0.71700001 -0.042742759 2.1758185e-38 339 274
0.025212931 0.71899998 -0.042861983 2.258649e-38 340 274
-0.040396802 0.72000003 -0.044183999 2.2771965e-38 288 275
-0.039080046 0.71899998 -0.044122629 2.1204999e-38 289 275
-0.037714198 0.71700001 -0.043999899 1.5032596e-38 290 275
-0.036406212 0.71600002 -0.043938532 1.1252215e-38 291 275
-0.035052639 0.71399999 -0.043815799 1.0618027e-38 292 275
-0.033753417 0.713 -0.043754432 1.4398047e-38 293 275
-0.032366529 0.70999998 -0.043570329 1.7523344e-38 294 275
-0.031121666 0.70999998 -0.043570329 1.7615541e-38 295 275
-0.029750559 0.70700002 -0.043386232 1.7246751e-38 296 275
-0.028470624 0.70599997 -0.043324865 1.6878328e-38 297 275
-0.027155625 0.704 -0.043202132 1.6235476e-38 298 275
-0.02592128 0.704 -0.043202132 1.6235476e-38 299 275
-0.024651866 0.70300001 -0.043140765 1.6052524e-38 300 275
-0.023419274 0.70300001 -0.043140765 1.5684102e-38 301 275
-0.02218668 0.70300001 -0.043140765 1.4484129e-38 302 275
-0.020954086 0.70300001 -0.043140765 1.2087043e-38 303 275
-0.019721493 0.70300001 -0.043140765 1.1350197e-38 304 275
-0.018488899 0.70300001 -0.043140765 1.0704827e-38 305 275
-0.017256306 0.70300001 -0.043140765 1.0429304e-38 306 275
-0.015978126 0.70099998 -0.043018032 1.0705531e-38 307 275
-0.014727999 0.69999999 -0.042956665 1.05197e-38 308 275
-0.013500666 0.69999999 -0.042956665 1.0888124e-38 309 275
-0.012273333 0.69999999 -0.042956665 1.1807585e-38 310 275
-0.011045999 0.69999999 -0.042956665 1.2084172e-38 311 275
-0.0098186666 0.69999999 -0.042956665 1.0428631e-38 312 275
-0.0085913334 0.69999999 -0.042956665 1.005985e-38 313 275
-0.0073639993 0.69999999 -0.042956665 1.0705559e-38 314 275
-0.0061366665 0.69999999 -0.042956665 1.3010091e-38 315 275
-0.0049093333 0.69999999 -0.042956665 1.1534605e-38 316 275
-0.0036819996 0.69999999 -0.042956665 7.2017689e-39 317 275
-0.0024546667 0.69999999 -0.042956665 2.6096676e-39 318 275
-0.0012273333 0.69999999 -0.042956665 2.7937001e-39 319 275
0 0.70099998 -0.043018032 2.9806123e-39 320 275
0.0012290865 0.70099998 -0.043018032 3.9025686e-39 321 275
0.0024581731 0.70099998 -0.043018032 1.0611207e-38 322 275
0.0036872597 0.70099998 -0.043018032 1.1533522e-38 323 275
0.0049303733 0.70300001 -0.043140765 1.2727354e-38 324 275
0.0061629666 0.70300001 -0.043140765 1.2450768e-38 325 275
0.0073955595 0.70300001 -0.043140765 1.0891371e-38 326 275
0.0086281532 0.70300001 -0.043140765 1.1628936e-38 327 275
0.0098747732 0.704 -0.043202132 1.2180313e-38 328 275
0.011109119 0.704 -0.043202132 1.1719337e-38 329 275
0.012378532 0.70599997 -0.043324865 1.162389e-38 330 275
0.013635674 0.70700002 -0.043386232 1.1439859e-38 331 275
0.01489632 0.708 -0.043447599 1.2267098e-38 332 275
0.01620606 0.71100003 -0.043631699 1.245149e-38 333 275
0.017501773 0.713 -0.043754432 1.2636957e-38 334 275
0.018778199 0.71399999 -0.043815799 1.2729153e-38 335 275
0.020086186 0.71600002 -0.043938532 1.3097212e-38 336 275
0.021371379 0.71700001 -0.043999899 1.4572342e-38 337 275
0.02262852 0.71700001 -0.043999899 1.7887772e-38 338 275
0.023952285 0.71899998 -0.044122629 2.1390846e-38 339 275
0.025212931 0.71899998 -0.044122629 2.221915e-38 340 275
-0.040396802 0.72000003 -0.045446403 2.2956715e-38 288 276
-0.039080046 0.71899998 -0.045383278 2.1758171e-38 289 276
-0.037661601 0.71600002 -0.045193922 1.5677238e-38 290 276
-0.036406212 0.71600002 -0.045193922 1.0514284e-38 291 276
-0.035052639 0.71399999 -0.045067675 3.253532e-39 292 276
-0.033800758 0.71399999 -0.045067675 6.295629e-39 293 276
-0.032366529 0.70999998 -0.044815198 1.5128792e-38 294 276
-0.031121666 0.70999998 -0.044815198 1.6696477e-38 295 276
-0.02979264 0.708 -0.044688959 1.7063086e-38 296 276
-0.028510952 0.70700002 -0.044625837 1.6878695e-38 297 276
-0.027232772 0.70599997 -0.044562716 1.6510984e-38 298 276
-0.02592128 0.704 -0.044436477 1.6418788e-38 299 276
-0.024651866 0.70300001 -0.04437336 1.6142922e-38 300 276
-0.023419274 0.70300001 -0.04437336 1.5774498e-38 301 276
-0.02218668 0.70300001 -0.04437336 1.4851467e-38 302 276
-0.020954086 0.70300001 -0.04437336 1.3007554e-38 303 276
-0.019749546 0.704 -0.044436477 1.3375261e-38 304 276
-0.018488899 0.70300001 -0.04437336 1.3744043e-38 305 276
-0.017256306 0.70300001 -0.04437336 1.3469977e-38 306 276
-0.016023712 0.70300001 -0.04437336 1.3377782e-38 307 276
-0.014749039 0.70099998 -0.044247117 1.3376705e-38 308 276
-0.013500666 0.69999999 -0.044183996 1.3468901e-38 309 276
-0.012273333 0.69999999 -0.044183996 1.3743337e-38 310 276
-0.011045999 0.69999999 -0.044183996 1.3651141e-38 311 276
-0.0098186666 0.69999999 -0.044183996 1.273243e-38 312 276
-0.0085913334 0.69999999 -0.044183996 1.1441692e-38 313 276
-0.0073639993 0.69999999 -0.044183996 1.1717553e-38 314 276
-0.0061366665 0.69999999 -0.044183996 1.3192684e-38 315 276
-0.0049093333 0.69999999 -0.044183996 1.2364353e-38 316 276
-0.0036819996 0.69999999 -0.044183996 1.1534591e-38 317 276
-0.0024546667 0.69999999 -0.044183996 1.1444563e-38 318 276
-0.0012273333 0.69999999 -0.044183996 1.1444563e-38 319 276
0 0.70099998 -0.044247117 1.1539277e-38 320 276
0.0012325933 0.70300001 -0.04437336 1.1815864e-38 321 276
0.0024651866 0.70300001 -0.04437336 1.328414e-38 322 276
0.0036977797 0.70300001 -0.04437336 1.328414e-38 323 276
0.0049303733 0.70300001 -0.04437336 1.3556765e-38 324 276
0.0061717331 0.704 -0.044436477 1.2726645e-38 325 276
0.0074060797 0.704 -0.044436477 1.1075405e-38 326 276
0.0086404262 0.704 -0.044436477 1.1259796e-38 327 276
0.0098747732 0.704 -0.044436477 1.1535663e-38 328 276
0.011140679 0.70599997 -0.044562716 1.1074686e-38 329 276
0.012378532 0.70599997 -0.044562716 1.1439859e-38 330 276
0.013635674 0.70700002 -0.044625837 1.162389e-38 331 276
0.014938398 0.70999998 -0.044815198 1.2359294e-38 332 276
0.01620606 0.71100003 -0.044878319 1.2543685e-38 333 276
0.017501773 0.713 -0.045004558 1.2453292e-38 334 276
0.0188308 0.71600002 -0.045193922 1.2360736e-38 335 276
0.020086186 0.71600002 -0.045193922 1.2820269e-38 336 276
0.021371379 0.71700001 -0.045257039 1.4387595e-38 337 276
0.022691639 0.71899998 -0.045383278 1.7703378e-38 338 276
0.023952285 0.71899998 -0.045383278 2.1114617e-38 339 276
0.025212931 0.71899998 -0.045383278 2.2312064e-38 340 276
-0.040396802 0.72000003 -0.0467088 2.3325494e-38 288 277
-0.038916986 0.71600002 -0.046449307 2.2311342e-38 289 277
-0.037661601 0.71600002 -0.046449307 1.7241674e-38 290 277
-0.036406212 0.71600002 -0.046449307 1.1525545e-38 291 277
-0.035003547 0.713 -0.046254687 1.4946151e-39 292 277
-0.033753417 0.713 -0.046254687 2.5091272e-39 293 277
-0.032548878 0.71399999 -0.046319555 5.835025e-39 294 277
-0.031121666 0.70999998 -0.046060063 1.1642991e-38 295 277
-0.029876797 0.70999998 -0.046060063 1.6972691e-38 296 277
-0.02855128 0.708 -0.045930319 1.6511714e-38 297 277
-0.027271347 0.70700002 -0.045865446 1.6235476e-38 298 277
-0.025994917 0.70599997 -0.04580057 1.6327672e-38 299 277
-0.024686933 0.704 -0.045670826 1.595961e-38 300 277
-0.023452586 0.704 -0.045670826 1.5867414e-38 301 277
-0.02218668 0.70300001 -0.04560595 1.4759993e-38 302 277
-0.020954086 0.70300001 -0.04560595 1.291608e-38 303 277
-0.019749546 0.704 -0.045670826 1.2915727e-38 304 277
-0.018515198 0.704 -0.045670826 1.3007923e-38 305 277
-0.017256306 0.70300001 -0.04560595 1.2825699e-38 306 277
-0.016023712 0.70300001 -0.04560595 1.2825699e-38 307 277
-0.014791119 0.70300001 -0.04560595 1.2183577e-38 308 277
-0.013519952 0.70099998 -0.045476202 1.2275773e-38 309 277
-0.012290866 0.70099998 -0.045476202 1.309762e-38 310 277
-0.011061779 0.70099998 -0.045476202 1.3189816e-38 311 277
-0.0098186666 0.69999999 -0.04541133 1.2459806e-38 312 277
-0.0085913334 0.69999999 -0.04541133 1.0892482e-38 313 277
-0.0073639993 0.69999999 -0.04541133 8.6866226e-39 314 277
-0.0061366665 0.69999999 -0.04541133 8.8710138e-39 315 277
-0.0049093333 0.69999999 -0.04541133 1.0523698e-38 316 277
-0.0036819996 0.69999999 -0.04541133 1.0523698e-38 317 277
-0.0024546667 0.69999999 -0.04541133 1.1078301e-38 318 277
-0.0012290865 0.70099998 -0.045476202 1.1815866e-38 319 277
0 0.70300001 -0.04560595 1.3192317e-38 320 277
0.0012325933 0.70300001 -0.04560595 1.3100121e-38 321 277
0.0024651866 0.70300001 -0.04560595 1.3007557e-38 322 277
0.0036977797 0.70300001 -0.04560595 1.3007557e-38 323 277
0.0049303733 0.70300001 -0.04560595 1.2914278e-38 324 277
0.0061717331 0.704 -0.045670826 1.2453302e-38 325 277
0.0074060797 0.704 -0.045670826 1.1534588e-38 326 277
0.0086404262 0.704 -0.045670826 1.1350197e-38 327 277
0.0099028256 0.70599997 -0.04580057 1.1442748e-38 328 277
0.011140679 0.70599997 -0.04580057 1.1257998e-38 329 277
0.012396066 0.70700002 -0.045865446 1.1440578e-38 330 277
0.013654959 0.708 -0.045930319 1.162497e-38 331 277
0.014938398 0.70999998 -0.046060063 1.2266743e-38 332 277
0.01620606 0.71100003 -0.046124939 1.2358938e-38 333 277
0.017501773 0.713 -0.046254687 1.2820995e-38 334 277
0.0188308 0.71600002 -0.046449307 1.2636604e-38 335 277
0.020086186 0.71600002 -0.046449307 1.2818828e-38 336 277
0.021371379 0.71700001 -0.046514176 1.4385793e-38 337 277
0.022691639 0.71899998 -0.046643924 1.7518983e-38 338 277
0.023952285 0.71899998 -0.046643924 2.1022418e-38 339 277
-0.040396802 0.72000003 -0.0479712 2.3141823e-38 288 278
-0.038916986 0.71600002 -0.047704693 2.2404257e-38 289 278
-0.037661601 0.71600002 -0.047704693 1.8439126e-38 290 278
-0.036406212 0.71600002 -0.047704693 1.3091779e-38 291 278
-0.035003547 0.713 -0.047504812 4.3418658e-39 292 278
-0.033753417 0.713 -0.047504812 2.95893e-39 293 278
-0.032503292 0.713 -0.047504812 2.1467892e-40 294 278
-0.031253166 0.713 -0.047504812 7.4981351e-39 295 278
-0.029876797 0.70999998 -0.047304932 1.7063808e-38 296 278
-0.028631933 0.70999998 -0.047304932 1.6787222e-38 297 278
-0.027309919 0.708 -0.047171678 1.6510981e-38 298 278
-0.02603174 0.70700002 -0.047105055 1.6510981e-38 299 278
-0.024757065 0.70599997 -0.047038425 1.6051805e-38 300 278
-0.023452586 0.704 -0.046905171 1.595961e-38 301 278
-0.022218239 0.704 -0.046905171 1.4577047e-38 302 278
-0.020983893 0.704 -0.046905171 1.3009722e-38 303 278
-0.019749546 0.704 -0.046905171 1.3009728e-38 304 278
-0.018515198 0.704 -0.046905171 1.3009728e-38 305 278
-0.017280852 0.704 -0.046905171 1.3010088e-38 306 278
-0.016023712 0.70300001 -0.046838548 1.2641664e-38 307 278
-0.014791119 0.70300001 -0.046838548 1.1631122e-38 308 278
-0.013558527 0.70300001 -0.046838548 1.1446731e-38 309 278
-0.012290866 0.70099998 -0.046705291 1.2086708e-38 310 278
-0.011061779 0.70099998 -0.046705291 1.2547686e-38 311 278
-0.0098326923 0.70099998 -0.046705291 1.3559687e-38 312 278
-0.0086036054 0.70099998 -0.046705291 1.1808329e-38 313 278
-0.0073745195 0.70099998 -0.046705291 9.2376523e-39 314 278
-0.0061454331 0.70099998 -0.046705291 8.9610641e-39 315 278
-0.0049163462 0.70099998 -0.046705291 9.8797778e-39 316 278
-0.0036872597 0.70099998 -0.046705291 1.0064169e-38 317 278
-0.0024581731 0.70099998 -0.046705291 1.061769e-38 318 278
-0.0012325933 0.70300001 -0.046838548 1.1724036e-38 319 278
0 0.70300001 -0.046838548 1.2640585e-38 320 278
0.0012343467 0.704 -0.046905171 1.254839e-38 321 278
0.0024686933 0.704 -0.046905171 1.2730616e-38 322 278
0.0037030398 0.704 -0.046905171 1.2730616e-38 323 278
0.0049373866 0.704 -0.046905171 1.2362909e-38 324 278
0.0061717331 0.704 -0.046905171 1.2178159e-38 325 278
0.0074060797 0.704 -0.046905171 1.1993048e-38 326 278
0.0086404262 0.704 -0.046905171 1.1624267e-38 327 278
0.0099028256 0.70599997 -0.047038425 1.1718256e-38 328 278
0.011140679 0.70599997 -0.047038425 1.1810452e-38 329 278
0.012396066 0.70700002 -0.047105055 1.2085947e-38 330 278
0.013654959 0.708 -0.047171678 1.1901556e-38 331 278
0.014959441 0.71100003 -0.047371563 1.245149e-38 332 278
0.01620606 0.71100003 -0.047371563 1.2543685e-38 333 278
0.017526319 0.71399999 -0.047571439 1.2821714e-38 334 278
0.0188308 0.71600002 -0.047704693 1.2453292e-38 335 278
0.020086186 0.71600002 -0.047704693 1.2634433e-38 336 278
0.021371379 0.71700001 -0.04777132 1.4109922e-38 337 278
0.02262852 0.71700001 -0.04777132 1.7427865e-38 338 278
0.02388566 0.71700001 -0.04777132 2.0654712e-38 339 278
-0.038971342 0.71700001 -0.04902846 2.2312061e-38 289 279
-0.037661601 0.71600002 -0.048960082 2.0281238e-38 290 279
-0.036406212 0.71600002 -0.048960082 1.6593771e-38 291 279
-0.035052639 0.71399999 -0.048823316 9.8617122e-39 292 279
-0.033800758 0.71399999 -0.048823316 4.9753424e-39 293 279
-0.032503292 0.713 -0.048754938 1.1559311e-41 294 279
-0.031253166 0.713 -0.048754938 6.0093171e-39 295 279
-0.029918881 0.71100003 -0.048618179 1.6695382e-38 296 279
-0.028631933 0.70999998 -0.048549797 1.7063805e-38 297 279
-0.027309919 0.708 -0.048413038 1.6419867e-38 298 279
-0.026068559 0.708 -0.048413038 1.6327672e-38 299 279
-0.024757065 0.70599997 -0.048276275 1.5776663e-38 300 279
-0.023452586 0.704 -0.048139516 1.5868859e-38 301 279
-0.022218239 0.704 -0.048139516 1.4208987e-38 302 279
-0.020983893 0.704 -0.048139516 1.2365074e-38 303 279
-0.019749546 0.704 -0.048139516 1.3100843e-38 304 279
-0.018515198 0.704 -0.048139516 1.3285236e-38 305 279
-0.017280852 0.704 -0.048139516 1.2918971e-38 306 279
-0.016046507 0.704 -0.048139516 1.2826776e-38 307 279
-0.014812159 0.704 -0.048139516 1.2273252e-38 308 279
-0.013558527 0.70300001 -0.048071139 1.2181056e-38 309 279
-0.012325933 0.70300001 -0.048071139 1.2273608e-38 310 279
-0.011061779 0.70099998 -0.047934376 1.3287401e-38 311 279
-0.0098326923 0.70099998 -0.047934376 1.4478754e-38 312 279
-0.0086036054 0.70099998 -0.047934376 1.1805079e-38 313 279
-0.0073745195 0.70099998 -0.047934376 1.0062723e-38 314 279
-0.0061454331 0.70099998 -0.047934376 1.0154919e-38 315 279
-0.0049163462 0.70099998 -0.047934376 9.9712503e-39 316 279
-0.0036872597 0.70099998 -0.047934376 9.9712503e-39 317 279
-0.0024651866 0.70300001 -0.048071139 9.3287522e-39 318 279
-0.0012325933 0.70300001 -0.048071139 1.0527295e-38 319 279
0 0.704 -0.048139516 1.2546596e-38 320 279
0.0012343467 0.704 -0.048139516 1.2915377e-38 321 279
0.0024686933 0.704 -0.048139516 1.2455475e-38 322 279
0.0037135598 0.70599997 -0.048276275 1.2086693e-38 323 279
0.0049514128 0.70599997 -0.048276275 1.2085967e-38 324 279
0.0061892662 0.70599997 -0.048276275 1.1901934e-38 325 279
0.0074271196 0.70599997 -0.048276275 1.2267471e-38 326 279
0.0086649731 0.70599997 -0.048276275 1.2175276e-38 327 279
0.0099028256 0.70599997 -0.048276275 1.1901203e-38 328 279
0.011156459 0.70700002 -0.048344657 1.2085594e-38 329 279
0.0124136 0.708 -0.048413038 1.2178144e-38 330 279
0.013693533 0.70999998 -0.048549797 1.2085947e-38 331 279
0.014959441 0.71100003 -0.048618179 1.2085947e-38 332 279
0.016251646 0.713 -0.048754938 1.2085947e-38 333 279
0.017526319 0.71399999 -0.048823316 1.2636601e-38 334 279
0.0188308 0.71600002 -0.048960082 1.2636601e-38 335 279
0.020114239 0.71700001 -0.04902846 1.2175253e-38 336 279
0.021371379 0.71700001 -0.04902846 1.392697e-38 337 279
0.02262852 0.71700001 -0.04902846 1.7704094e-38 338 279
0.02388566 0.71700001 -0.04902846 2.0377768e-38 339 279
-0.036406212 0.71600002 -0.050215468 1.7611166e-38 291 280
-0.035052639 0.71399999 -0.050075196 1.4197404e-38 292 280
-0.033800758 0.71399999 -0.050075196 8.3890806e-39 293 280
-0.032548878 0.71399999 -0.050075196 1.9440116e-39 294 280
-0.031253166 0.713 -0.050005067 6.3697619e-39 295 280
-0.030003037 0.713 -0.050005067 1.6787533e-38 296 280
-0.028672259 0.71100003 -0.049864799 1.7340707e-38 297 280
-0.027387066 0.70999998 -0.049794663 1.6695731e-38 298 280
-0.026068559 0.708 -0.049654398 1.6603536e-38 299 280
-0.024792133 0.70700002 -0.049584266 1.6327316e-38 300 280
-0.023519212 0.70599997 -0.04951413 1.641987e-38 301 280
-0.022218239 0.704 -0.049373865 1.4393378e-38 302 280
-0.020983893 0.704 -0.049373865 1.245727e-38 303 280
-0.019805651 0.70599997 -0.04951413 1.2732065e-38 304 280
-0.018515198 0.704 -0.049373865 1.2732065e-38 305 280
-0.017280852 0.704 -0.049373865 1.2734946e-38 306 280
-0.016046507 0.704 -0.049373865 1.2827141e-38 307 280
-0.014812159 0.704 -0.049373865 1.2642387e-38 308 280
-0.013577812 0.704 -0.049373865 1.2549831e-38 309 280
-0.012325933 0.70300001 -0.049303733 1.2826776e-38 310 280
-0.01109334 0.70300001 -0.049303733 1.273458e-38 311 280
-0.0098607466 0.70300001 -0.049303733 1.2365074e-38 312 280
-0.0086281532 0.70300001 -0.049303733 1.1811901e-38 313 280
-0.0073955595 0.70300001 -0.049303733 1.1257651e-38 314 280
-0.0061629666 0.70300001 -0.049303733 1.1349846e-38 315 280
-0.0049303733 0.70300001 -0.049303733 1.134949e-38 316 280
-0.0036977797 0.70300001 -0.049303733 1.1442045e-38 317 280
-0.0024651866 0.70300001 -0.049303733 1.1627156e-38 318 280
-0.0012343467 0.704 -0.049373865 1.1903743e-38 319 280
0 0.704 -0.049373865 1.1723668e-38 320 280
0.0012343467 0.704 -0.049373865 1.1631472e-38 321 280
0.0024757064 0.70599997 -0.04951413 1.1901945e-38 322 280
0.0037135598 0.70599997 -0.04951413 1.1533522e-38 323 280
0.0049514128 0.70599997 -0.04951413 1.226784e-38 324 280
0.0061892662 0.70599997 -0.04951413 1.2083449e-38 325 280
0.0074271196 0.70599997 -0.04951413 1.1991598e-38 326 280
0.0086649731 0.70599997 -0.04951413 1.2176348e-38 327 280
0.0099168532 0.70700002 -0.049584266 1.2269615e-38 328 280
0.011156459 0.70700002 -0.049584266 1.2361812e-38 329 280
0.012448666 0.70999998 -0.049794663 1.2179216e-38 330 280
0.01371282 0.71100003 -0.049864799 1.208702e-38 331 280
0.015001519 0.713 -0.050005067 1.2544401e-38 332 280
0.016274439 0.71399999 -0.050075196 1.2544401e-38 333 280
0.017575413 0.71600002 -0.050215468 1.2819916e-38 334 280
0.0188308 0.71600002 -0.050215468 1.2543688e-38 335 280
0.020114239 0.71700001 -0.0502856 1.1808273e-38 336 280
0.021371379 0.71700001 -0.0502856 1.3836577e-38 337 280
0.02262852 0.71700001 -0.0502856 1.7520785e-38 338 280
-0.036406212 0.71600002 -0.051470853 1.7520779e-38 291 281
-0.035150826 0.71600002 -0.051470853 1.6412987e-38 292 281
-0.03389544 0.71600002 -0.051470853 1.5030053e-38 293 281
-0.032548878 0.71399999 -0.05132708 1.4101988e-38 294 281
-0.031296998 0.71399999 -0.05132708 1.5392727e-38 295 281
-0.030003037 0.713 -0.051255193 1.7247452e-38 296 281
-0.028672259 0.71100003 -0.051111419 1.7247452e-38 297 281
-0.027387066 0.70999998 -0.051039528 1.660318e-38 298 281
-0.026142199 0.70999998 -0.051039528 1.6695375e-38 299 281
-0.024827199 0.708 -0.050895758 1.6235486e-38 300 281
-0.023552528 0.70700002 -0.050823875 1.632804e-38 301 281
-0.022281358 0.70599997 -0.050751984 1.4761441e-38 302 281
-0.021043506 0.70599997 -0.050751984 1.2640582e-38 303 281
-0.019805651 0.70599997 -0.050751984 1.2364002e-38 304 281
-0.018567799 0.70599997 -0.050751984 1.2732784e-38 305 281
-0.017280852 0.704 -0.050608214 1.2825344e-38 306 281
-0.016046507 0.704 -0.050608214 1.2917898e-38 307 281
-0.014812159 0.704 -0.050608214 1.2917895e-38 308 281
-0.013577812 0.704 -0.050608214 1.2917895e-38 309 281
-0.012343466 0.704 -0.050608214 1.3378153e-38 310 281
-0.011109119 0.704 -0.050608214 1.1257295e-38 311 281
-0.0098607466 0.70300001 -0.050536323 9.3283766e-39 312 281
-0.0086281532 0.70300001 -0.050536323 1.2278996e-38 313 281
-0.0073955595 0.70300001 -0.050536323 1.3929156e-38 314 281
-0.0061629666 0.70300001 -0.050536323 1.3283787e-38 315 281
-0.0049303733 0.70300001 -0.050536323 1.3375264e-38 316 281
-0.0036977797 0.70300001 -0.050536323 1.3375264e-38 317 281
-0.0024686933 0.704 -0.050608214 1.328379e-38 318 281
-0.0012343467 0.704 -0.050608214 1.2915008e-38 319 281
0 0.704 -0.050608214 1.16304e-38 320 281
0.0012378532 0.70599997 -0.050751984 1.1353812e-38 321 281
0.0024757064 0.70599997 -0.050751984 1.2729193e-38 322 281
0.0037135598 0.70599997 -0.050751984 1.2636998e-38 323 281
0.0049514128 0.70599997 -0.050751984 1.2360753e-38 324 281
0.0061892662 0.70599997 -0.050751984 1.2084525e-38 325 281
0.0074271196 0.70599997 -0.050751984 1.2087396e-38 326 281
0.008677247 0.70700002 -0.050823875 1.2363623e-38 327 281
0.0099168532 0.70700002 -0.050823875 1.2362904e-38 328 281
0.01117224 0.708 -0.050895758 1.2362904e-38 329 281
0.012448666 0.70999998 -0.051039528 1.2087393e-38 330 281
0.01371282 0.71100003 -0.051111419 1.1903002e-38 331 281
0.015022559 0.71399999 -0.05132708 1.2544407e-38 332 281
0.016320027 0.71600002 -0.051470853 1.2636604e-38 333 281
0.017599959 0.71700001 -0.051542737 1.2819914e-38 334 281
0.018857099 0.71700001 -0.051542737 1.2543685e-38 335 281
0.020114239 0.71700001 -0.051542737 1.1530963e-38 336 281
0.021430992 0.71899998 -0.05168651 1.3835493e-38 337 281
0.022691639 0.71899998 -0.05168651 1.7520785e-38 338 281
-0.036558751 0.71899998 -0.05294716 1.7888844e-38 291 282
-0.035150826 0.71600002 -0.052726239 1.6508072e-38 292 282
-0.03389544 0.71600002 -0.052726239 1.5954898e-38 293 282
-0.032640055 0.71600002 -0.052726239 1.5589361e-38 294 282
-0.031296998 0.71399999 -0.052578956 1.6050341e-38 295 282
-0.030045118 0.71399999 -0.052578956 1.7431849e-38 296 282
-0.028752912 0.713 -0.052505318 1.7247458e-38 297 282
-0.027425639 0.71100003 -0.052358042 1.6695375e-38 298 282
-0.026142199 0.70999998 -0.052284397 1.660318e-38 299 282
-0.024827199 0.708 -0.052137118 1.6327322e-38 300 282
-0.023552528 0.70700002 -0.05206348 1.6419517e-38 301 282
-0.022312919 0.70700002 -0.05206348 1.4668889e-38 302 282
-0.021073313 0.70700002 -0.05206348 1.2640585e-38 303 282
-0.019805651 0.70599997 -0.051989835 1.2364005e-38 304 282
-0.018567799 0.70599997 -0.051989835 1.2640232e-38 305 282
-0.017329946 0.70599997 -0.051989835 1.2825349e-38 306 282
-0.016092092 0.70599997 -0.051989835 1.2640958e-38 307 282
-0.014812159 0.704 -0.051842559 1.3192687e-38 308 282
-0.013577812 0.704 -0.051842559 1.3192687e-38 309 282
-0.012343466 0.704 -0.051842559 1.3377431e-38 310 282
-0.011109119 0.704 -0.051842559 1.1994497e-38 311 282
-0.0098747732 0.704 -0.051842559 1.1806866e-38 312 282
-0.0086404262 0.704 -0.051842559 1.4203592e-38 313 282
-0.0074060797 0.704 -0.051842559 1.3286302e-38 314 282
-0.0061717331 0.704 -0.051842559 1.2825683e-38 315 282
-0.0049373866 0.704 -0.051842559 1.3008273e-38 316 282
-0.0037030398 0.704 -0.051842559 1.2916078e-38 317 282
-0.0024686933 0.704 -0.051842559 1.2731333e-38 318 282
-0.0012378532 0.70599997 -0.051989835 1.2547301e-38 319 282
0 0.70599997 -0.051989835 1.2178538e-38 320 282
0.0012378532 0.70599997 -0.051989835 1.1994147e-38 321 282
0.0024757064 0.70599997 -0.051989835 1.254732e-38 322 282
0.0037135598 0.70599997 -0.051989835 1.2731712e-38 323 282
0.0049514128 0.70599997 -0.051989835 1.2454755e-38 324 282
0.0061980332 0.70700002 -0.05206348 1.2270005e-38 325 282
0.0074376399 0.70700002 -0.05206348 1.2823176e-38 326 282
0.008677247 0.70700002 -0.05206348 1.2546948e-38 327 282
0.0099308798 0.708 -0.052137118 1.2545147e-38 328 282
0.01117224 0.708 -0.052137118 1.2545147e-38 329 282
0.0124662 0.71100003 -0.052358042 1.2085241e-38 330 282
0.013751393 0.713 -0.052505318 1.190085e-38 331 282
0.015022559 0.71399999 -0.052578956 1.2085231e-38 332 282
0.016320027 0.71600002 -0.052726239 1.2453655e-38 333 282
0.017599959 0.71700001 -0.052799881 1.2727354e-38 334 282
0.018909698 0.71899998 -0.05294716 1.2358572e-38 335 282
0.020170346 0.71899998 -0.05294716 1.1346213e-38 336 282
0.021460801 0.72000003 -0.053020801 1.3559267e-38 337 282
-0.036558751 0.71899998 -0.054207806 1.8255832e-38 291 283
-0.035199918 0.71700001 -0.054057021 1.6325854e-38 292 283
-0.03389544 0.71600002 -0.053981625 1.6325854e-38 293 283
-0.032640055 0.71600002 -0.053981625 1.7065587e-38 294 283
-0.031296998 0.71399999 -0.053830836 1.7157783e-38 295 283
-0.030045118 0.71399999 -0.053830836 1.7064508e-38 296 283
-0.028752912 0.713 -0.053755447 1.6788281e-38 297 283
-0.027425639 0.71100003 -0.053604662 1.6695375e-38 298 283
-0.026142199 0.70999998 -0.053529263 1.660318e-38 299 283
-0.024827199 0.708 -0.053378478 1.6235486e-38 300 283
-0.023585839 0.708 -0.053378478 1.6235486e-38 301 283
-0.022312919 0.70700002 -0.053303085 1.4668889e-38 302 283
-0.021073313 0.70700002 -0.053303085 1.3101923e-38 303 283
-0.019833706 0.70700002 -0.053303085 1.3009372e-38 304 283
-0.018567799 0.70599997 -0.053227689 1.2548034e-38 305 283
-0.017329946 0.70599997 -0.053227689 1.2823904e-38 306 283
-0.016092092 0.70599997 -0.053227689 1.3100491e-38 307 283
-0.014854239 0.70599997 -0.053227689 1.3008294e-38 308 283
-0.013616386 0.70599997 -0.053227689 1.3192687e-38 309 283
-0.012378532 0.70599997 -0.053227689 1.3469627e-38 310 283
-0.011140679 0.70599997 -0.053227689 1.3008289e-38 311 283
-0.0098747732 0.704 -0.053076904 1.3191238e-38 312 283
-0.0086404262 0.704 -0.053076904 1.3836607e-38 313 283
-0.0074060797 0.704 -0.053076904 1.2826051e-38 314 283
-0.0061717331 0.704 -0.053076904 1.2826051e-38 315 283
-0.0049514128 0.70599997 -0.053227689 1.2917528e-38 316 283
-0.0037135598 0.70599997 -0.053227689 1.2640582e-38 317 283
-0.0024757064 0.70599997 -0.053227689 1.2363275e-38 318 283
-0.0012378532 0.70599997 -0.053227689 1.2179244e-38 319 283
0 0.70599997 -0.053227689 1.2086695e-38 320 283
0.0012378532 0.70599997 -0.053227689 1.2086695e-38 321 283
0.0024757064 0.70599997 -0.053227689 1.1994865e-38 322 283
0.0037135598 0.70599997 -0.053227689 1.2087061e-38 323 283
0.0049584266 0.70700002 -0.053303085 1.2362203e-38 324 283
0.0061980332 0.70700002 -0.053303085 1.2270008e-38 325 283
0.0074376399 0.70700002 -0.053303085 1.2179244e-38 326 283
0.008689519 0.708 -0.053378478 1.2363275e-38 327 283
0.0099308798 0.708 -0.053378478 1.2454749e-38 328 283
0.011203799 0.70999998 -0.053529263 1.2085967e-38 329 283
0.0124662 0.71100003 -0.053604662 1.1624267e-38 330 283
0.013751393 0.713 -0.053755447 1.1624267e-38 331 283
0.015022559 0.71399999 -0.053830836 1.1625342e-38 332 283
0.016320027 0.71600002 -0.053981625 1.1533146e-38 333 283
0.017599959 0.71700001 -0.054057021 1.2358219e-38 334 283
0.018909698 0.71899998 -0.054207806 1.2173827e-38 335 283
0.020170346 0.71899998 -0.054207806 1.189759e-38 336 283
-0.035298105 0.71899998 -0.055468451 1.6416974e-38 292 284
-0.033942781 0.71700001 -0.055314157 1.6416974e-38 293 284
-0.032640055 0.71600002 -0.055237014 1.7248183e-38 294 284
-0.031384666 0.71600002 -0.055237014 1.7340379e-38 295 284
-0.030045118 0.71399999 -0.05508272 1.6880124e-38 296 284
-0.028752912 0.713 -0.055005573 1.6880124e-38 297 284
-0.027425639 0.71100003 -0.054851279 1.6880127e-38 298 284
-0.026142199 0.70999998 -0.054774132 1.6695375e-38 299 284
-0.024897331 0.70999998 -0.054774132 1.6419514e-38 300 284
-0.023585839 0.708 -0.054619838 1.6327319e-38 301 284
-0.022344479 0.708 -0.054619838 1.420971e-38 302 284
-0.021103119 0.708 -0.054619838 1.273458e-38 303 284
-0.01986176 0.708 -0.054619838 1.337815e-38 304 284
-0.018594101 0.70700002 -0.054542694 1.2917172e-38 305 284
-0.017354494 0.70700002 -0.054542694 1.2917172e-38 306 284
-0.016092092 0.70599997 -0.054465543 1.2917172e-38 307 284
-0.014854239 0.70599997 -0.054465543 1.3100491e-38 308 284
-0.013616386 0.70599997 -0.054465543 1.3100491e-38 309 284
-0.012378532 0.70599997 -0.054465543 1.3377431e-38 310 284
-0.011140679 0.70599997 -0.054465543 1.319304e-38 311 284
-0.0099028256 0.70599997 -0.054465543 1.3009725e-38 312 284
-0.0086649731 0.70599997 -0.054465543 1.3285952e-38 313 284
-0.0074271196 0.70599997 -0.054465543 1.3009725e-38 314 284
-0.0061892662 0.70599997 -0.054465543 1.3009725e-38 315 284
-0.0049514128 0.70599997 -0.054465543 1.3009725e-38 316 284
-0.0037135598 0.70599997 -0.054465543 1.2640582e-38 317 284
-0.0024757064 0.70599997 -0.054465543 1.2272159e-38 318 284
-0.0012378532 0.70599997 -0.054465543 1.2179963e-38 319 284
0 0.70599997 -0.054465543 1.1903017e-38 320 284
0.0012378532 0.70599997 -0.054465543 1.1903017e-38 321 284
0.0024757064 0.70599997 -0.054465543 1.2086693e-38 322 284
0.0037135598 0.70599997 -0.054465543 1.2362919e-38 323 284
0.0049584266 0.70700002 -0.054542694 1.2454752e-38 324 284
0.0061980332 0.70700002 -0.054542694 1.2362556e-38 325 284
0.0074376399 0.70700002 -0.054542694 1.2269642e-38 326 284
0.008689519 0.708 -0.054619838 1.2638064e-38 327 284
0.0099589331 0.70999998 -0.054774132 1.2731333e-38 328 284
0.011203799 0.70999998 -0.054774132 1.2085964e-38 329 284
0.0124662 0.71100003 -0.054851279 1.1715739e-38 330 284
0.013751393 0.713 -0.055005573 1.1623542e-38 331 284
0.01506464 0.71600002 -0.055237014 1.1439508e-38 332 284
0.016342819 0.71700001 -0.055314157 1.162354e-38 333 284
0.017599959 0.71700001 -0.055314157 1.2174547e-38 334 284
0.018909698 0.71899998 -0.055468451 1.2266743e-38 335 284
-0.033942781 0.71700001 -0.056571297 1.6599564e-38 293 285
-0.032640055 0.71600002 -0.056492399 1.7063792e-38 294 285
-0.031384666 0.71600002 -0.056492399 1.7155988e-38 295 285
-0.030045118 0.71399999 -0.0563346 1.6788291e-38 296 285
-0.028793238 0.71399999 -0.0563346 1.6696096e-38 297 285
