# .PCD v.7 - Point Cloud Data file format
FIELDS x y z rgb imX imY
SIZE 4 4 4 4 4 4
TYPE F F F F F F
COUNT 1 1 1 1 1 1
WIDTH 829
HEIGHT 1
VIEWPOINT 0 0 0 1 0 0 0
POINTS 829
DATA ascii
-0.037135597 0.70599997 -0.023519212 1.926422e-38 290 259
-0.035897743 0.70599997 -0.023519212 1.631396e-38 291 259
-0.034561705 0.704 -0.023452586 1.713255e-38 292 259
-0.03332736 0.704 -0.023452586 1.4366681e-38 293 259
-0.032047424 0.70300001 -0.023419274 1.5834598e-38 294 259
-0.030814834 0.70300001 -0.023419274 1.3530066e-38 295 259
-0.029455997 0.69999999 -0.023319334 1.4151702e-38 296 259
-0.028148014 0.69800001 -0.023252707 1.3229746e-38 297 259
-0.026885614 0.69700003 -0.023219392 1.3408013e-38 298 259
-0.025663542 0.69700003 -0.023219392 1.2397806e-38 299 259
-0.0244064 0.69599998 -0.023186078 1.1758253e-38 300 259
-0.023119451 0.69400001 -0.023119451 1.7197435e-38 301 259
-0.021871079 0.69300002 -0.02308614 1.4191726e-38 302 259
-0.020656019 0.69300002 -0.02308614 1.6496258e-38 303 259
-0.01944096 0.69300002 -0.02308614 1.5494334e-38 304 259
-0.018225901 0.69300002 -0.02308614 1.5586529e-38 305 259
-0.016961746 0.69099998 -0.023019511 1.5404288e-38 306 259
-0.015750192 0.69099998 -0.023019511 1.448233e-38 307 259
-0.014538639 0.69099998 -0.023019511 9.4141179e-39 308 259
-0.013327086 0.69099998 -0.023019511 7.108867e-39 309 259
-0.012115533 0.69099998 -0.023019511 8.5811454e-39 310 259
-0.010888199 0.69 -0.022986198 1.0332861e-38 311 259
-0.0096783992 0.69 -0.022986198 1.2172437e-38 312 259
-0.0084686 0.69 -0.022986198 1.1066089e-38 313 259
-0.0072587994 0.69 -0.022986198 9.2318748e-39 314 259
-0.0060489997 0.69 -0.022986198 9.7850472e-39 315 259
-0.0048251734 0.68800002 -0.022919573 9.8718394e-39 316 259
-0.0036188802 0.68800002 -0.022919573 9.41122e-39 317 259
-0.0024195998 0.69 -0.022986198 9.7796312e-39 318 259
-0.0012097999 0.69 -0.022986198 1.0332805e-38 319 259
0 0.69 -0.022986198 1.0515397e-38 320 259
0.0012097999 0.69 -0.022986198 1.0146616e-38 321 259
0.0024231065 0.69099998 -0.023019511 8.9534662e-39 322 259
0.0036451798 0.69300002 -0.02308614 1.0889574e-38 323 259
0.00486024 0.69300002 -0.02308614 1.2268175e-38 324 259
0.0060753003 0.69300002 -0.02308614 1.0147675e-38 325 259
0.0073008798 0.69400001 -0.023119451 9.2264448e-39 326 259
0.0085176928 0.69400001 -0.023119451 8.9494977e-39 327 259
0.0097625591 0.69599998 -0.023186078 9.0427948e-39 328 259
0.010982879 0.69599998 -0.023186078 1.060976e-38 329 259
0.012220734 0.69700003 -0.023219392 1.1897615e-38 330 259
0.013442807 0.69700003 -0.023219392 1.2911409e-38 331 259
0.01468592 0.69800001 -0.023252707 1.2543685e-38 332 259
0.015955333 0.69999999 -0.023319334 1.2267098e-38 333 259
0.017207211 0.70099998 -0.023352645 1.1714278e-38 334 259
0.018488899 0.70300001 -0.023419274 1.1345495e-38 335 259
0.019721493 0.70300001 -0.023419274 1.1987621e-38 336 259
0.020983893 0.704 -0.023452586 1.2725187e-38 337 259
0.022281358 0.70599997 -0.023519212 1.3370187e-38 338 259
0.023652466 0.70999998 -0.023652466 1.8533142e-38 339 259
0.024897331 0.70999998 -0.023652466 2.1849291e-38 340 259
-0.039835732 0.70999998 -0.024897331 2.2771965e-38 288 260
-0.038482159 0.708 -0.024827199 2.2311345e-38 289 260
-0.037188202 0.70700002 -0.024792133 1.8986915e-38 290 260
-0.035897743 0.70599997 -0.024757065 1.6405437e-38 291 260
-0.034659892 0.70599997 -0.024757065 1.8612015e-38 292 260
-0.03332736 0.704 -0.024686933 1.5569199e-38 293 260
-0.032093015 0.704 -0.024686933 1.6112987e-38 294 260
-0.030814834 0.70300001 -0.024651866 1.3900291e-38 295 260
-0.029582238 0.70300001 -0.024651866 1.4429338e-38 296 260
-0.028148014 0.69800001 -0.024476532 1.3968362e-38 297 260
-0.026924185 0.69800001 -0.024476532 1.4518664e-38 298 260
-0.025663542 0.69700003 -0.024441468 1.461086e-38 299 260
-0.024441468 0.69700003 -0.024441468 1.3966257e-38 300 260
-0.023186078 0.69599998 -0.0244064 1.3320888e-38 301 260
-0.021902639 0.69400001 -0.024336265 1.1679041e-38 302 260
-0.020685827 0.69400001 -0.024336265 1.5551257e-38 303 260
-0.019469013 0.69400001 -0.024336265 1.5031192e-38 304 260
-0.018225901 0.69300002 -0.024301201 1.6229735e-38 305 260
-0.01701084 0.69300002 -0.024301201 1.5404288e-38 306 260
-0.015795778 0.69300002 -0.024301201 1.4943668e-38 307 260
-0.014538639 0.69099998 -0.024231065 1.2267134e-38 308 260
-0.013327086 0.69099998 -0.024231065 1.0699808e-38 309 260
-0.012115533 0.69099998 -0.024231065 1.0420004e-38 310 260
-0.01090398 0.69099998 -0.024231065 1.0235612e-38 311 260
-0.0096924258 0.69099998 -0.024231065 1.0050495e-38 312 260
-0.008480873 0.69099998 -0.024231065 1.0142691e-38 313 260
-0.0072693196 0.69099998 -0.024231065 1.0423947e-38 314 260
-0.0060577663 0.69099998 -0.024231065 1.0423947e-38 315 260
-0.0048462129 0.69099998 -0.024231065 9.3226215e-39 316 260
-0.0036346598 0.69099998 -0.024231065 9.4148171e-39 317 260
-0.0024231065 0.69099998 -0.024231065 1.0517199e-38 318 260
-0.0012115532 0.69099998 -0.024231065 1.0793786e-38 319 260
0 0.69099998 -0.024231065 9.6881614e-39 320 260
0.0012115532 0.69099998 -0.024231065 1.09789e-38 321 260
0.00243012 0.69300002 -0.024301201 1.0797026e-38 322 260
0.0036451798 0.69300002 -0.024301201 1.1718983e-38 323 260
0.00486024 0.69300002 -0.024301201 1.3647525e-38 324 260
0.0060753003 0.69300002 -0.024301201 1.3186907e-38 325 260
0.0073008798 0.69400001 -0.024336265 1.3462049e-38 326 260
0.0085176928 0.69400001 -0.024336265 1.3554244e-38 327 260
0.0097625591 0.69599998 -0.0244064 1.3186188e-38 328 260
0.010982879 0.69599998 -0.0244064 1.2724849e-38 329 260
0.012220734 0.69700003 -0.024441468 1.1900481e-38 330 260
0.013442807 0.69700003 -0.024441468 1.1900481e-38 331 260
0.01468592 0.69800001 -0.024476532 1.1990514e-38 332 260
0.015955333 0.69999999 -0.024546666 1.1713569e-38 333 260
0.017207211 0.70099998 -0.024581732 1.1712853e-38 334 260
0.018488899 0.70300001 -0.024651866 1.1712853e-38 335 260
0.019749546 0.704 -0.024686933 1.2356773e-38 336 260
0.020983893 0.704 -0.024686933 1.2909947e-38 337 260
0.022312919 0.70700002 -0.024792133 1.327871e-38 338 260
0.023652466 0.70999998 -0.024897331 1.8441665e-38 339 260
0.024897331 0.70999998 -0.024897331 2.1756018e-38 340 260
-0.039835732 0.70999998 -0.026142199 2.2680125e-38 288 261
-0.038590867 0.70999998 -0.026142199 2.2034756e-38 289 261
-0.037188202 0.70700002 -0.02603174 1.843446e-38 290 261
-0.035948593 0.70700002 -0.02603174 1.6037375e-38 291 261
-0.034659892 0.70599997 -0.025994917 1.805921e-38 292 261
-0.033422034 0.70599997 -0.025994917 1.6123102e-38 293 261
-0.032093015 0.704 -0.02592128 1.6115521e-38 294 261
-0.030814834 0.70300001 -0.025884461 1.5470151e-38 295 261
-0.029582238 0.70300001 -0.025884461 1.4997615e-38 296 261
-0.028228667 0.69999999 -0.025773998 1.2323942e-38 297 261
-0.026924185 0.69800001 -0.025700359 1.3784319e-38 298 261
-0.025663542 0.69700003 -0.025663542 1.4521886e-38 299 261
-0.024441468 0.69700003 -0.025663542 1.4338236e-38 300 261
-0.023186078 0.69599998 -0.025626717 1.2771269e-38 301 261
-0.021965759 0.69599998 -0.025626717 1.2307812e-38 302 261
-0.020745439 0.69599998 -0.025626717 1.636442e-38 303 261
-0.019469013 0.69400001 -0.025553079 1.5578585e-38 304 261
-0.0182522 0.69400001 -0.025553079 1.7514694e-38 305 261
-0.01701084 0.69300002 -0.02551626 1.5679798e-38 306 261
-0.015795778 0.69300002 -0.02551626 1.521882e-38 307 261
-0.014580719 0.69300002 -0.02551626 1.2637717e-38 308 261
-0.01336566 0.69300002 -0.02551626 1.1992347e-38 309 261
-0.012150601 0.69300002 -0.02551626 1.2266415e-38 310 261
-0.010935539 0.69300002 -0.02551626 1.2450805e-38 311 261
-0.0096924258 0.69099998 -0.025442619 1.1803266e-38 312 261
-0.008480873 0.69099998 -0.025442619 1.235644e-38 313 261
-0.0072693196 0.69099998 -0.025442619 1.2911055e-38 314 261
-0.0060577663 0.69099998 -0.025442619 1.281886e-38 315 261
-0.0048462129 0.69099998 -0.025442619 1.1533872e-38 316 261
-0.0036346598 0.69099998 -0.025442619 1.1533872e-38 317 261
-0.0024231065 0.69099998 -0.025442619 1.2637698e-38 318 261
-0.0012115532 0.69099998 -0.025442619 1.2545503e-38 319 261
0 0.69099998 -0.025442619 9.967265e-39 320 261
0.0012115532 0.69099998 -0.025442619 1.0336049e-38 321 261
0.00243012 0.69300002 -0.02551626 1.0061626e-38 322 261
0.0036451798 0.69300002 -0.02551626 1.0153821e-38 323 261
0.00486024 0.69300002 -0.02551626 1.0798472e-38 324 261
0.0060840664 0.69400001 -0.025553079 1.1351646e-38 325 261
0.0073008798 0.69400001 -0.025553079 1.2726294e-38 326 261
0.0085176928 0.69400001 -0.025553079 1.3003241e-38 327 261
0.0097625591 0.69599998 -0.025626717 1.3279455e-38 328 261
0.01099866 0.69700003 -0.025663542 1.2726282e-38 329 261
0.012220734 0.69700003 -0.025663542 1.208343e-38 330 261
0.013442807 0.69700003 -0.025663542 1.1806483e-38 331 261
0.01468592 0.69800001 -0.025700359 1.2080556e-38 332 261
0.015955333 0.69999999 -0.025773998 1.2080556e-38 333 261
0.017207211 0.70099998 -0.025810819 1.1622808e-38 334 261
0.018515198 0.704 -0.02592128 1.1991232e-38 335 261
0.019749546 0.704 -0.02592128 1.2818828e-38 336 261
0.021043506 0.70599997 -0.025994917 1.3002859e-38 337 261
0.022344479 0.708 -0.026068559 1.3370187e-38 338 261
0.023685781 0.71100003 -0.026179021 1.8348392e-38 339 261
0.024932399 0.71100003 -0.026179021 2.1755652e-38 340 261
-0.039835732 0.70999998 -0.027387066 2.2679772e-38 288 262
-0.038590867 0.70999998 -0.027387066 2.2310989e-38 289 262
-0.0372408 0.708 -0.027309919 1.8527374e-38 290 262
-0.03599944 0.708 -0.027309919 1.548492e-38 291 262
-0.034659892 0.70599997 -0.027232772 1.667556e-38 292 262
-0.033422034 0.70599997 -0.027232772 1.5753243e-38 293 262
-0.032093015 0.704 -0.027155625 1.685455e-38 294 262
-0.030814834 0.70300001 -0.027117053 1.749992e-38 295 262
-0.029582238 0.70300001 -0.027117053 1.6485384e-38 296 262
-0.028228667 0.69999999 -0.027001332 1.3719156e-38 297 262
-0.027001332 0.69999999 -0.027001332 1.4445909e-38 298 262
-0.025700359 0.69800001 -0.026924185 1.3708344e-38 299 262
-0.024441468 0.69700003 -0.026885614 1.4342202e-38 300 262
-0.023219392 0.69700003 -0.026885614 1.3051463e-38 301 262
-0.021965759 0.69599998 -0.026847038 1.3598914e-38 302 262
-0.020745439 0.69599998 -0.026847038 1.6733925e-38 303 262
-0.019525118 0.69599998 -0.026847038 1.6129601e-38 304 262
-0.0182522 0.69400001 -0.026769891 1.7973514e-38 305 262
-0.01701084 0.69300002 -0.02673132 1.5312088e-38 306 262
-0.015795778 0.69300002 -0.02673132 1.485147e-38 307 262
-0.014580719 0.69300002 -0.02673132 1.2545866e-38 308 262
-0.01336566 0.69300002 -0.02673132 1.1900496e-38 309 262
-0.012150601 0.69300002 -0.02673132 1.1992332e-38 310 262
-0.010935539 0.69300002 -0.02673132 1.2452951e-38 311 262
-0.0097204801 0.69300002 -0.02673132 1.3186553e-38 312 262
-0.008480873 0.69099998 -0.026654173 1.3094358e-38 313 262
-0.0072693196 0.69099998 -0.026654173 1.3096156e-38 314 262
-0.0060577663 0.69099998 -0.026654173 1.2911764e-38 315 262
-0.00486024 0.69300002 -0.02673132 1.1441673e-38 316 262
-0.0036451798 0.69300002 -0.02673132 1.1718259e-38 317 262
-0.00243012 0.69300002 -0.02673132 1.2730613e-38 318 262
-0.00121506 0.69300002 -0.02673132 1.2730613e-38 319 262
0 0.69300002 -0.02673132 9.6906823e-39 320 262
0.00121506 0.69300002 -0.02673132 9.6906823e-39 321 262
0.00243012 0.69300002 -0.02673132 1.0058401e-38 322 262
0.0036504399 0.69400001 -0.026769891 9.9662056e-39 323 262
0.0048672534 0.69400001 -0.026769891 8.4085909e-39 324 262
0.0060840664 0.69400001 -0.026769891 9.5149385e-39 325 262
0.0073008798 0.69400001 -0.026769891 1.2268556e-38 326 262
0.0085422397 0.69599998 -0.026847038 1.2268556e-38 327 262
0.0097765867 0.69700003 -0.026885614 1.2451139e-38 328 262
0.01099866 0.69700003 -0.026885614 1.2358944e-38 329 262
0.012238266 0.69800001 -0.026924185 1.2174194e-38 330 262
0.013462093 0.69800001 -0.026924185 1.2174194e-38 331 262
0.014727999 0.69999999 -0.027001332 1.2173108e-38 332 262
0.015978126 0.70099998 -0.027039904 1.2080912e-38 333 262
0.017256306 0.70300001 -0.027117053 1.1806839e-38 334 262
0.018515198 0.704 -0.027155625 1.2175982e-38 335 262
0.019749546 0.704 -0.027155625 1.3095061e-38 336 262
0.021103119 0.708 -0.027309919 1.3095061e-38 337 262
0.022407599 0.70999998 -0.027387066 1.3370187e-38 338 262
0.023685781 0.71100003 -0.027425639 1.8348392e-38 339 262
0.025107734 0.71600002 -0.027618507 2.2031881e-38 340 262
-0.041080594 0.70999998 -0.028631933 2.249466e-38 287 263
-0.039835732 0.70999998 -0.028631933 2.2679052e-38 288 263
-0.038590867 0.70999998 -0.028631933 2.2586856e-38 289 263
-0.0372408 0.708 -0.02855128 1.9080548e-38 290 263
-0.03599944 0.708 -0.02855128 1.5945898e-38 291 263
-0.034659892 0.70599997 -0.028470624 1.6024791e-38 292 263
-0.033422034 0.70599997 -0.028470624 1.4918445e-38 293 263
-0.032093015 0.704 -0.028389972 1.6573653e-38 294 263
-0.030858666 0.704 -0.028389972 1.7956587e-38 295 263
-0.029582238 0.70300001 -0.028349647 1.6764871e-38 296 263
-0.028268991 0.70099998 -0.028268991 1.5935471e-38 297 263
-0.027001332 0.69999999 -0.028228667 1.5474117e-38 298 263
-0.025700359 0.69800001 -0.028148014 1.4921302e-38 299 263
-0.024476532 0.69800001 -0.028148014 1.5180251e-38 300 263
-0.023219392 0.69700003 -0.028107686 1.1123642e-38 301 263
-0.02199732 0.69700003 -0.028107686 1.3598197e-38 302 263
-0.020775247 0.69700003 -0.028107686 1.7009436e-38 303 263
-0.019525118 0.69599998 -0.028067358 1.6129604e-38 304 263
-0.018304799 0.69599998 -0.028067358 1.7789485e-38 305 263
-0.017035386 0.69400001 -0.027986705 1.5312088e-38 306 263
-0.015818574 0.69400001 -0.027986705 1.4943665e-38 307 263
-0.01460176 0.69400001 -0.027986705 1.3374185e-38 308 263
-0.013384946 0.69400001 -0.027986705 1.2728815e-38 309 263
-0.012168133 0.69400001 -0.027986705 1.2728815e-38 310 263
-0.010935539 0.69300002 -0.027946379 1.2821011e-38 311 263
-0.0097204801 0.69300002 -0.027946379 1.2638052e-38 312 263
-0.0085054198 0.69300002 -0.027946379 1.2730247e-38 313 263
-0.0072903596 0.69300002 -0.027946379 1.2638417e-38 314 263
-0.0060753003 0.69300002 -0.027946379 1.2362191e-38 315 263
-0.00486024 0.69300002 -0.027946379 1.1902652e-38 316 263
-0.0036451798 0.69300002 -0.027946379 1.2087043e-38 317 263
-0.00243012 0.69300002 -0.027946379 1.2173841e-38 318 263
-0.00121506 0.69300002 -0.027946379 1.2266395e-38 319 263
0 0.69300002 -0.027946379 1.1162931e-38 320 263
0.0012168133 0.69400001 -0.027986705 1.0886705e-38 321 263
0.0024336267 0.69400001 -0.027986705 1.0335701e-38 322 263
0.0036504399 0.69400001 -0.027986705 1.0243146e-38 323 263
0.0048672534 0.69400001 -0.027986705 9.1421959e-39 324 263
0.0060840664 0.69400001 -0.027986705 1.034038e-38 325 263
0.0073219193 0.69599998 -0.028067358 1.3280914e-38 326 263
0.0085422397 0.69599998 -0.028067358 1.2635545e-38 327 263
0.0097765867 0.69700003 -0.028107686 1.3002155e-38 328 263
0.01099866 0.69700003 -0.028107686 1.2818124e-38 329 263
0.012238266 0.69800001 -0.028148014 1.2634449e-38 330 263
0.013462093 0.69800001 -0.028148014 1.2450418e-38 331 263
0.014727999 0.69999999 -0.028228667 1.2081628e-38 332 263
0.016023712 0.70300001 -0.028349647 1.1989433e-38 333 263
0.017256306 0.70300001 -0.028349647 1.1990514e-38 334 263
0.018515198 0.704 -0.028389972 1.2266743e-38 335 263
0.019805651 0.70599997 -0.028470624 1.2635881e-38 336 263
0.021043506 0.70599997 -0.028470624 1.2819914e-38 337 263
0.022407599 0.70999998 -0.028631933 1.337055e-38 338 263
0.023685781 0.71100003 -0.028672259 1.8257278e-38 339 263
0.025107734 0.71600002 -0.028873893 2.1940765e-38 340 263
-0.041138459 0.71100003 -0.029918881 2.2494304e-38 287 264
-0.039835732 0.70999998 -0.029876797 2.2679052e-38 288 264
-0.038590867 0.70999998 -0.029876797 2.2586856e-38 289 264
-0.0372408 0.708 -0.02979264 1.9172744e-38 290 264
-0.03599944 0.708 -0.02979264 1.6591266e-38 291 264
-0.034758076 0.708 -0.02979264 1.5749265e-38 292 264
-0.033516716 0.708 -0.02979264 1.2614613e-38 293 264
-0.032184184 0.70599997 -0.029708479 1.5184582e-38 294 264
-0.030858666 0.704 -0.029624319 1.7673864e-38 295 264
-0.029624319 0.704 -0.029624319 1.7225128e-38 296 264
-0.028268991 0.70099998 -0.029498078 1.7317682e-38 297 264
-0.027039904 0.70099998 -0.029498078 1.6031259e-38 298 264
-0.025773998 0.69999999 -0.029455997 1.6307846e-38 299 264
-0.024476532 0.69800001 -0.029371841 1.5654914e-38 300 264
-0.023219392 0.69700003 -0.02932976 8.740602e-39 301 264
-0.02199732 0.69700003 -0.02932976 1.3229421e-38 302 264
-0.020775247 0.69700003 -0.02932976 1.6824691e-38 303 264
-0.019553173 0.69700003 -0.02932976 1.6405468e-38 304 264
-0.018304799 0.69599998 -0.029287677 1.8157545e-38 305 264
-0.017084479 0.69599998 -0.029287677 1.5220973e-38 306 264
-0.015818574 0.69400001 -0.029203519 1.503658e-38 307 264
-0.01460176 0.69400001 -0.029203519 1.3559297e-38 308 264
-0.013384946 0.69400001 -0.029203519 1.3006125e-38 309 264
-0.012168133 0.69400001 -0.029203519 1.2822813e-38 310 264
-0.01095132 0.69400001 -0.029203519 1.2822813e-38 311 264
-0.0097345067 0.69400001 -0.029203519 1.2547665e-38 312 264
-0.0085054198 0.69300002 -0.029161438 1.2547665e-38 313 264
-0.0072903596 0.69300002 -0.029161438 1.2547665e-38 314 264
-0.0060753003 0.69300002 -0.029161438 1.2455468e-38 315 264
-0.0048672534 0.69400001 -0.029203519 1.2823529e-38 316 264
-0.0036451798 0.69300002 -0.029161438 1.2731333e-38 317 264
-0.00243012 0.69300002 -0.029161438 1.15292e-38 318 264
-0.0012168133 0.69400001 -0.029203519 1.0146265e-38 319 264
0 0.69400001 -0.029203519 1.1159347e-38 320 264
0.0012168133 0.69400001 -0.029203519 1.0882401e-38 321 264
0.0024336267 0.69400001 -0.029203519 1.0149152e-38 322 264
0.0036504399 0.69400001 -0.029203519 1.0241348e-38 323 264
0.0048672534 0.69400001 -0.029203519 1.0426817e-38 324 264
0.0061015999 0.69599998 -0.029287677 1.1256579e-38 325 264
0.0073219193 0.69599998 -0.029287677 1.318872e-38 326 264
0.0085422397 0.69599998 -0.029287677 1.2635547e-38 327 264
0.0097765867 0.69700003 -0.02932976 1.2911043e-38 328 264
0.01101444 0.69800001 -0.029371841 1.2818846e-38 329 264
0.012238266 0.69800001 -0.029371841 1.2543688e-38 330 264
0.013500666 0.69999999 -0.029455997 1.2451134e-38 331 264
0.014749039 0.70099998 -0.029498078 1.1990868e-38 332 264
0.016023712 0.70300001 -0.029582238 1.21749e-38 333 264
0.017280852 0.704 -0.029624319 1.2449692e-38 334 264
0.018515198 0.704 -0.029624319 1.2634083e-38 335 264
0.019805651 0.70599997 -0.029708479 1.2634799e-38 336 264
0.021043506 0.70599997 -0.029708479 1.2819549e-38 337 264
0.022407599 0.70999998 -0.029876797 1.3831884e-38 338 264
0.023685781 0.71100003 -0.029918881 1.8533861e-38 339 264
0.024932399 0.71100003 -0.029918881 2.1941487e-38 340 264
-0.041138459 0.71100003 -0.031165501 2.2586856e-38 287 265
-0.039891839 0.71100003 -0.031165501 2.2862361e-38 288 265
-0.038645219 0.71100003 -0.031165501 2.2493939e-38 289 265
-0.037345998 0.70999998 -0.031121666 1.8620643e-38 290 265
-0.036101133 0.70999998 -0.031121666 1.6039166e-38 291 265
-0.034758076 0.708 -0.031034 1.6399316e-38 292 265
-0.033516716 0.708 -0.031034 1.3725643e-38 293 265
-0.032229774 0.70700002 -0.030990168 1.4998395e-38 294 265
-0.030946331 0.70599997 -0.030946331 1.5367178e-38 295 265
-0.029624319 0.704 -0.030858666 1.5096002e-38 296 265
-0.028349647 0.70300001 -0.030814834 1.6478936e-38 297 265
-0.027117053 0.70300001 -0.030814834 1.4923129e-38 298 265
-0.025773998 0.69999999 -0.030683333 1.6583011e-38 299 265
-0.024476532 0.69800001 -0.030595668 1.5749278e-38 300 265
-0.023252707 0.69800001 -0.030595668 8.650214e-39 301 265
-0.02199732 0.69700003 -0.030551834 1.3229786e-38 302 265
-0.020775247 0.69700003 -0.030551834 1.654883e-38 303 265
-0.019553173 0.69700003 -0.030551834 1.668026e-38 304 265
-0.018331099 0.69700003 -0.030551834 1.8616368e-38 305 265
-0.017109027 0.69700003 -0.030551834 1.5404644e-38 306 265
-0.015864158 0.69599998 -0.030507999 1.5219892e-38 307 265
-0.01460176 0.69400001 -0.030420333 1.2547668e-38 308 265
-0.013384946 0.69400001 -0.030420333 1.1994494e-38 309 265
-0.012168133 0.69400001 -0.030420333 1.2546952e-38 310 265
-0.01095132 0.69400001 -0.030420333 1.2546952e-38 311 265
-0.0097345067 0.69400001 -0.030420333 1.2362919e-38 312 265
-0.0085176928 0.69400001 -0.030420333 1.2362919e-38 313 265
-0.0073008798 0.69400001 -0.030420333 1.2455475e-38 314 265
-0.0060840664 0.69400001 -0.030420333 1.2362919e-38 315 265
-0.0048672534 0.69400001 -0.030420333 1.2272159e-38 316 265
-0.0036504399 0.69400001 -0.030420333 1.2179963e-38 317 265
-0.0024336267 0.69400001 -0.030420333 1.1899778e-38 318 265
-0.0012168133 0.69400001 -0.030420333 1.1254408e-38 319 265
0 0.69400001 -0.030420333 1.2173123e-38 320 265
0.0012203199 0.69599998 -0.030507999 1.2173123e-38 321 265
0.0024406398 0.69599998 -0.030507999 1.0886702e-38 322 265
0.0036609597 0.69599998 -0.030507999 1.1163287e-38 323 265
0.0048812795 0.69599998 -0.030507999 1.3185837e-38 324 265
0.0061015999 0.69599998 -0.030507999 1.3001086e-38 325 265
0.00733244 0.69700003 -0.030551834 1.0889942e-38 326 265
0.0085545136 0.69700003 -0.030551834 1.0613713e-38 327 265
0.0097765867 0.69700003 -0.030551834 1.1808657e-38 328 265
0.01101444 0.69800001 -0.030595668 1.1993048e-38 329 265
0.012273333 0.69999999 -0.030683333 1.2267824e-38 330 265
0.013519952 0.70099998 -0.030727165 1.2451855e-38 331 265
0.014791119 0.70300001 -0.030814834 1.2451134e-38 332 265
0.016046507 0.704 -0.030858666 1.2543688e-38 333 265
0.017280852 0.704 -0.030858666 1.245149e-38 334 265
0.018567799 0.70599997 -0.030946331 1.2359294e-38 335 265
0.019833706 0.70700002 -0.030990168 1.2451124e-38 336 265
0.021073313 0.70700002 -0.030990168 1.337272e-38 337 265
0.022407599 0.70999998 -0.031121666 1.466057e-38 338 265
0.023685781 0.71100003 -0.031165501 1.8901568e-38 339 265
0.024932399 0.71100003 -0.031165501 2.1758174e-38 340 265
-0.039891839 0.71100003 -0.032412119 2.2494657e-38 288 266
-0.038645219 0.71100003 -0.032412119 2.2218431e-38 289 266
-0.037345998 0.70999998 -0.032366529 1.9080177e-38 290 266
-0.036101133 0.70999998 -0.032366529 1.603808e-38 291 266
-0.034758076 0.708 -0.03227536 1.6493317e-38 292 266
-0.033516716 0.708 -0.03227536 1.5202578e-38 293 266
-0.032229774 0.70700002 -0.032229774 1.5002711e-38 294 266
-0.030946331 0.70599997 -0.032184184 1.3066602e-38 295 266
-0.029624319 0.704 -0.032093015 1.3238773e-38 296 266
-0.028349647 0.70300001 -0.032047424 1.4160369e-38 297 266
-0.027117053 0.70300001 -0.032047424 1.4265535e-38 298 266
-0.025773998 0.69999999 -0.031910665 1.6478589e-38 299 266
-0.024546666 0.69999999 -0.031910665 1.6111583e-38 300 266
-0.023252707 0.69800001 -0.031819493 1.0395094e-38 301 266
-0.02202888 0.69800001 -0.031819493 1.3324497e-38 302 266
-0.020805053 0.69800001 -0.031819493 1.5998171e-38 303 266
-0.019581227 0.69800001 -0.031819493 1.6403674e-38 304 266
-0.0183574 0.69800001 -0.031819493 1.8432337e-38 305 266
-0.017109027 0.69700003 -0.03177391 1.5404641e-38 306 266
-0.015886955 0.69700003 -0.03177391 1.5404641e-38 307 266
-0.014643839 0.69599998 -0.031728316 1.2824613e-38 308 266
-0.013423519 0.69599998 -0.031728316 1.1717906e-38 309 266
-0.012168133 0.69400001 -0.031637147 1.2177809e-38 310 266
-0.01095132 0.69400001 -0.031637147 1.23622e-38 311 266
-0.0097345067 0.69400001 -0.031637147 1.2086695e-38 312 266
-0.0085176928 0.69400001 -0.031637147 1.1994141e-38 313 266
-0.0073008798 0.69400001 -0.031637147 1.2086339e-38 314 266
-0.0060840664 0.69400001 -0.031637147 1.2178535e-38 315 266
-0.0048812795 0.69599998 -0.031728316 1.2087414e-38 316 266
-0.0036609597 0.69599998 -0.031728316 1.199486e-38 317 266
-0.0024406398 0.69599998 -0.031728316 1.2545153e-38 318 266
-0.0012203199 0.69599998 -0.031728316 1.2913576e-38 319 266
0 0.69700003 -0.03177391 1.3281623e-38 320 266
0.0012220733 0.69700003 -0.03177391 1.2912841e-38 321 266
0.0024441467 0.69700003 -0.03177391 1.0152004e-38 322 266
0.00366622 0.69700003 -0.03177391 1.0152004e-38 323 266
0.0048882933 0.69700003 -0.03177391 1.3463862e-38 324 266
0.0061103669 0.69700003 -0.03177391 1.2818493e-38 325 266
0.00733244 0.69700003 -0.03177391 1.1624272e-38 326 266
0.0085545136 0.69700003 -0.03177391 1.1624272e-38 327 266
0.0097906133 0.69800001 -0.031819493 1.1624986e-38 328 266
0.01101444 0.69800001 -0.031819493 1.1809736e-38 329 266
0.012273333 0.69999999 -0.031910665 1.2634449e-38 330 266
0.013558527 0.70300001 -0.032047424 1.2726645e-38 331 266
0.014812159 0.704 -0.032093015 1.2636604e-38 332 266
0.016092092 0.70599997 -0.032184184 1.2636604e-38 333 266
0.017329946 0.70599997 -0.032184184 1.2635881e-38 334 266
0.018594101 0.70700002 -0.032229774 1.245149e-38 335 266
0.01986176 0.708 -0.03227536 1.2909947e-38 336 266
0.021103119 0.708 -0.03227536 1.39241e-38 337 266
0.022407599 0.70999998 -0.032366529 1.4386146e-38 338 266
0.02378572 0.71399999 -0.032548878 1.8258363e-38 339 266
0.025107734 0.71600002 -0.032640055 2.1850015e-38 340 266
-0.039891839 0.71100003 -0.033658739 2.2586853e-38 288 267
-0.038645219 0.71100003 -0.033658739 2.2771246e-38 289 267
-0.037345998 0.70999998 -0.033611398 2.0002859e-38 290 267
-0.036101133 0.70999998 -0.033611398 1.6868207e-38 291 267
-0.034856264 0.70999998 -0.033611398 1.6588383e-38 292 267
-0.033516716 0.708 -0.033516716 1.5297645e-38 293 267
-0.03227536 0.708 -0.033516716 1.4177996e-38 294 267
-0.030990168 0.70700002 -0.033469379 1.344043e-38 295 267
-0.029708479 0.70599997 -0.033422034 1.4168641e-38 296 267
-0.028349647 0.70300001 -0.033280019 1.1863391e-38 297 267
-0.027117053 0.70300001 -0.033280019 1.3508163e-38 298 267
-0.025810819 0.70099998 -0.03318534 1.3415967e-38 299 267
-0.024546666 0.69999999 -0.033137999 1.4246081e-38 300 267
-0.023252707 0.69800001 -0.033043321 1.4153885e-38 301 267
-0.02202888 0.69800001 -0.033043321 1.3693633e-38 302 267
-0.020805053 0.69800001 -0.033043321 1.5814132e-38 303 267
-0.019581227 0.69800001 -0.033043321 1.6588058e-38 304 267
-0.0183574 0.69800001 -0.033043321 1.8708917e-38 305 267
-0.017133573 0.69800001 -0.033043321 1.5496839e-38 306 267
-0.015909746 0.69800001 -0.033043321 1.5404644e-38 307 267
-0.01466488 0.69700003 -0.03299598 1.3468182e-38 308 267
-0.013442807 0.69700003 -0.03299598 1.2269639e-38 309 267
-0.0122032 0.69599998 -0.032948639 1.217709e-38 310 267
-0.010982879 0.69599998 -0.032948639 1.2361482e-38 311 267
-0.0097625591 0.69599998 -0.032948639 1.1902664e-38 312 267
-0.0085422397 0.69599998 -0.032948639 1.1902664e-38 313 267
-0.0073219193 0.69599998 -0.032948639 1.1810106e-38 314 267
-0.0061015999 0.69599998 -0.032948639 1.2086693e-38 315 267
-0.0048812795 0.69599998 -0.032948639 1.1903743e-38 316 267
-0.0036609597 0.69599998 -0.032948639 1.1903743e-38 317 267
-0.0024441467 0.69700003 -0.03299598 1.2087411e-38 318 267
-0.0012220733 0.69700003 -0.03299598 1.2271804e-38 319 267
0 0.69700003 -0.03299598 1.2548021e-38 320 267
0.0012220733 0.69700003 -0.03299598 1.2455824e-38 321 267
0.0024441467 0.69700003 -0.03299598 1.107397e-38 322 267
0.00366622 0.69700003 -0.03299598 1.1258001e-38 323 267
0.0048882933 0.69700003 -0.03299598 1.1718259e-38 324 267
0.0061103669 0.69700003 -0.03299598 1.1533869e-38 325 267
0.0073429602 0.69800001 -0.033043321 1.1624988e-38 326 267
0.0085667865 0.69800001 -0.033043321 1.1624988e-38 327 267
0.0097906133 0.69800001 -0.033043321 1.1809736e-38 328 267
0.011045999 0.69999999 -0.033137999 1.2085964e-38 329 267
0.012273333 0.69999999 -0.033137999 1.2636254e-38 330 267
0.013558527 0.70300001 -0.033280019 1.2543698e-38 331 267
0.014812159 0.704 -0.03332736 1.2268909e-38 332 267
0.016092092 0.70599997 -0.033422034 1.2084878e-38 333 267
0.017329946 0.70599997 -0.033422034 1.2543332e-38 334 267
0.0186204 0.708 -0.033516716 1.2912115e-38 335 267
0.019917866 0.70999998 -0.033611398 1.3924103e-38 336 267
0.021162732 0.70999998 -0.033611398 1.4108134e-38 337 267
0.022439159 0.71100003 -0.033658739 1.3557462e-38 338 267
0.02378572 0.71399999 -0.033800758 1.8075048e-38 339 267
0.025107734 0.71600002 -0.03389544 2.2033328e-38 340 267
0.026363119 0.71600002 -0.03389544 2.1941131e-38 341 267
-0.038753927 0.713 -0.035003547 2.3047831e-38 289 268
-0.037398599 0.71100003 -0.034905359 2.0373083e-38 290 268
-0.036101133 0.70999998 -0.034856264 1.7423182e-38 291 268
-0.034856264 0.70999998 -0.034856264 1.7328465e-38 292 268
-0.033516716 0.708 -0.034758076 1.5945531e-38 293 268
-0.03227536 0.708 -0.034758076 1.4557577e-38 294 268
-0.030990168 0.70700002 -0.034708988 1.4741968e-38 295 268
-0.029750559 0.70700002 -0.034708988 1.4467174e-38 296 268
-0.028349647 0.70300001 -0.034512613 1.2346674e-38 297 268
-0.027117053 0.70300001 -0.034512613 1.2879672e-38 298 268
-0.025884461 0.70300001 -0.034512613 1.1128315e-38 299 268
-0.024581732 0.70099998 -0.034414422 1.3234062e-38 300 268
-0.023319334 0.69999999 -0.034365334 1.3326257e-38 301 268
-0.02202888 0.69800001 -0.034267146 1.3417749e-38 302 268
-0.020805053 0.69800001 -0.034267146 1.5446053e-38 303 268
-0.019637333 0.69999999 -0.034365334 1.6680963e-38 304 268
-0.018409999 0.69999999 -0.034365334 1.8801464e-38 305 268
-0.017133573 0.69800001 -0.034267146 1.5589754e-38 306 268
-0.015909746 0.69800001 -0.034267146 1.5220973e-38 307 268
-0.01468592 0.69800001 -0.034267146 1.3009722e-38 308 268
-0.013442807 0.69700003 -0.034218054 1.1903015e-38 309 268
-0.0122032 0.69599998 -0.034168959 1.1718633e-38 310 268
-0.010982879 0.69599998 -0.034168959 1.199486e-38 311 268
-0.0097625591 0.69599998 -0.034168959 1.1719355e-38 312 268
-0.0085422397 0.69599998 -0.034168959 1.1627159e-38 313 268
-0.0073219193 0.69599998 -0.034168959 1.1994144e-38 314 268
-0.0061103669 0.69700003 -0.034218054 1.2178535e-38 315 268
-0.0048882933 0.69700003 -0.034218054 1.1812269e-38 316 268
-0.00366622 0.69700003 -0.034218054 1.1536042e-38 317 268
-0.0024441467 0.69700003 -0.034218054 1.1994141e-38 318 268
-0.0012238267 0.69800001 -0.034267146 1.2178891e-38 319 268
0 0.69800001 -0.034267146 1.2547668e-38 320 268
0.0012238267 0.69800001 -0.034267146 1.2639863e-38 321 268
0.0024476533 0.69800001 -0.034267146 1.2085246e-38 322 268
0.0036714801 0.69800001 -0.034267146 1.1993051e-38 323 268
0.0048953067 0.69800001 -0.034267146 1.1900496e-38 324 268
0.006119133 0.69800001 -0.034267146 1.1900496e-38 325 268
0.0073429602 0.69800001 -0.034267146 1.1992329e-38 326 268
0.0085667865 0.69800001 -0.034267146 1.2268556e-38 327 268
0.0098186666 0.69999999 -0.034365334 1.2268912e-38 328 268
0.011045999 0.69999999 -0.034365334 1.2268912e-38 329 268
0.012290866 0.70099998 -0.034414422 1.2361106e-38 330 268
0.013577812 0.704 -0.034561705 1.2361106e-38 331 268
0.014812159 0.704 -0.034561705 1.2451858e-38 332 268
0.016092092 0.70599997 -0.034659892 1.2451858e-38 333 268
0.017354494 0.70700002 -0.034708988 1.3371295e-38 334 268
0.0186204 0.708 -0.034758076 1.3647881e-38 335 268
0.01994592 0.71100003 -0.034905359 1.3650033e-38 336 268
0.021192541 0.71100003 -0.034905359 1.3557837e-38 337 268
0.022439159 0.71100003 -0.034905359 1.3923723e-38 338 268
0.02378572 0.71399999 -0.035052639 1.8718256e-38 339 268
0.025107734 0.71600002 -0.035150826 2.2033328e-38 340 268
0.026363119 0.71600002 -0.035150826 2.1941131e-38 341 268
-0.038808275 0.71399999 -0.036304519 2.28638e-38 289 269
-0.037503798 0.713 -0.036253672 2.0558199e-38 290 269
-0.036151983 0.71100003 -0.036151983 1.825331e-38 291 269
-0.034856264 0.70999998 -0.036101133 1.7791977e-38 292 269
-0.033611398 0.70999998 -0.036101133 1.7146608e-38 293 269
-0.03227536 0.708 -0.03599944 1.6224305e-38 294 269
-0.031034 0.708 -0.03599944 1.6777479e-38 295 269
-0.029750559 0.70700002 -0.035948593 1.5860927e-38 296 269
-0.028349647 0.70300001 -0.035745207 1.5031165e-38 297 269
-0.027117053 0.70300001 -0.035745207 1.5943395e-38 298 269
-0.025884461 0.70300001 -0.035745207 1.4191678e-38 299 269
-0.024581732 0.70099998 -0.035643511 1.4085034e-38 300 269
-0.023319334 0.69999999 -0.035592664 9.9362291e-39 301 269
-0.022091998 0.69999999 -0.035592664 1.2039079e-38 302 269
-0.020864666 0.69999999 -0.035592664 1.4804589e-38 303 269
-0.019637333 0.69999999 -0.035592664 1.6221406e-38 304 269
-0.018409999 0.69999999 -0.035592664 1.8526655e-38 305 269
-0.017133573 0.69800001 -0.035490975 1.5497558e-38 306 269
-0.015909746 0.69800001 -0.035490975 1.5220973e-38 307 269
-0.01468592 0.69800001 -0.035490975 1.2917892e-38 308 269
-0.013462093 0.69800001 -0.035490975 1.1719708e-38 309 269
-0.012220734 0.69700003 -0.035440128 1.1902314e-38 310 269
-0.01099866 0.69700003 -0.035440128 1.2086705e-38 311 269
-0.0097765867 0.69700003 -0.035440128 1.2087061e-38 312 269
-0.0085545136 0.69700003 -0.035440128 1.2179257e-38 313 269
-0.00733244 0.69700003 -0.035440128 1.2639513e-38 314 269
-0.006119133 0.69800001 -0.035490975 1.2362925e-38 315 269
-0.0048953067 0.69800001 -0.035490975 1.1995942e-38 316 269
-0.0036714801 0.69800001 -0.035490975 1.1903746e-38 317 269
-0.0024476533 0.69800001 -0.035490975 1.2179254e-38 318 269
-0.0012238267 0.69800001 -0.035490975 1.2179254e-38 319 269
0 0.69800001 -0.035490975 1.2364356e-38 320 269
0.0012238267 0.69800001 -0.035490975 1.2272159e-38 321 269
0.0024476533 0.69800001 -0.035490975 1.2361835e-38 322 269
0.0036714801 0.69800001 -0.035490975 1.2177443e-38 323 269
0.0048953067 0.69800001 -0.035490975 1.1993051e-38 324 269
0.006119133 0.69800001 -0.035490975 1.2085246e-38 325 269
0.0073639993 0.69999999 -0.035592664 1.2177441e-38 326 269
0.0085913334 0.69999999 -0.035592664 1.2177441e-38 327 269
0.0098186666 0.69999999 -0.035592664 1.2451505e-38 328 269
0.011061779 0.70099998 -0.035643511 1.2267474e-38 329 269
0.012325933 0.70300001 -0.035745207 1.2267118e-38 330 269
0.013577812 0.704 -0.035796054 1.2451508e-38 331 269
0.014854239 0.70599997 -0.035897743 1.2635533e-38 332 269
0.016114887 0.70700002 -0.035948593 1.3188349e-38 333 269
0.017379038 0.708 -0.03599944 1.4199611e-38 334 269
0.018672999 0.70999998 -0.036101133 1.401522e-38 335 269
0.01994592 0.71100003 -0.036151983 1.2362165e-38 336 269
0.021192541 0.71100003 -0.036151983 1.226961e-38 337 269
0.022502279 0.713 -0.036253672 1.392336e-38 338 269
0.02378572 0.71399999 -0.036304519 1.8993761e-38 339 269
0.025107734 0.71600002 -0.036406212 2.2216996e-38 340 269
0.026363119 0.71600002 -0.036406212 2.2216996e-38 341 269
-0.038808275 0.71399999 -0.037556399 2.2954917e-38 289 270
-0.037503798 0.713 -0.037503798 2.0282335e-38 290 270
-0.036151983 0.71100003 -0.037398599 1.8161836e-38 291 270
-0.034856264 0.70999998 -0.037345998 1.6689596e-38 292 270
-0.033611398 0.70999998 -0.037345998 1.6413008e-38 293 270
-0.03227536 0.708 -0.0372408 1.5400308e-38 294 270
-0.031034 0.708 -0.0372408 1.5400308e-38 295 270
-0.029750559 0.70700002 -0.037188202 1.5308125e-38 296 270
-0.028470624 0.70599997 -0.037135597 1.4939344e-38 297 270
-0.027155625 0.704 -0.037030395 1.5673302e-38 298 270
-0.025884461 0.70300001 -0.036977798 1.6779289e-38 299 270
-0.024651866 0.70300001 -0.036977798 1.6406859e-38 300 270
-0.023319334 0.69999999 -0.036819998 1.3087817e-38 301 270
-0.022091998 0.69999999 -0.036819998 1.2059603e-38 302 270
-0.020864666 0.69999999 -0.036819998 1.2520222e-38 303 270
-0.019637333 0.69999999 -0.036819998 1.5763305e-38 304 270
-0.018409999 0.69999999 -0.036819998 1.8068195e-38 305 270
-0.017182667 0.69999999 -0.036819998 1.5589754e-38 306 270
-0.015909746 0.69800001 -0.0367148 1.5220973e-38 307 270
-0.01468592 0.69800001 -0.0367148 1.2182128e-38 308 270
-0.013462093 0.69800001 -0.0367148 1.1536759e-38 309 270
-0.012238266 0.69800001 -0.0367148 1.254732e-38 310 270
-0.01099866 0.69700003 -0.036662199 1.2639516e-38 311 270
-0.0097765867 0.69700003 -0.036662199 1.254839e-38 312 270
-0.0085667865 0.69800001 -0.0367148 1.254839e-38 313 270
-0.0073429602 0.69800001 -0.0367148 1.2272523e-38 314 270
-0.006119133 0.69800001 -0.0367148 1.1904099e-38 315 270
-0.0048953067 0.69800001 -0.0367148 1.1811548e-38 316 270
-0.0036714801 0.69800001 -0.0367148 1.1996298e-38 317 270
-0.0024476533 0.69800001 -0.0367148 1.2362922e-38 318 270
-0.0012238267 0.69800001 -0.0367148 1.2178891e-38 319 270
0 0.69800001 -0.0367148 1.199486e-38 320 270
0.0012238267 0.69800001 -0.0367148 1.199486e-38 321 270
0.0024476533 0.69800001 -0.0367148 1.2361482e-38 322 270
0.0036714801 0.69800001 -0.0367148 1.2269286e-38 323 270
0.0048953067 0.69800001 -0.0367148 1.2085611e-38 324 270
0.0061366665 0.69999999 -0.036819998 1.2177806e-38 325 270
0.0073639993 0.69999999 -0.036819998 1.2545866e-38 326 270
0.0085913334 0.69999999 -0.036819998 1.2177443e-38 327 270
0.0098326923 0.70099998 -0.036872596 1.2819213e-38 328 270
0.01109334 0.70300001 -0.036977798 1.2819213e-38 329 270
0.012325933 0.70300001 -0.036977798 1.2357872e-38 330 270
0.013616386 0.70599997 -0.037135597 1.1896534e-38 331 270
0.014854239 0.70599997 -0.037135597 1.2722331e-38 332 270
0.016114887 0.70700002 -0.037188202 1.3552092e-38 333 270
0.017379038 0.708 -0.0372408 1.3004308e-38 334 270
0.018672999 0.70999998 -0.037345998 1.2635884e-38 335 270
0.01994592 0.71100003 -0.037398599 1.1807917e-38 336 270
0.021252153 0.713 -0.037503798 1.171572e-38 337 270
0.022533838 0.71399999 -0.037556399 1.3371626e-38 338 270
0.023852346 0.71600002 -0.037661601 1.8903364e-38 339 270
0.0251428 0.71700001 -0.037714198 2.2309191e-38 340 270
0.02639994 0.71700001 -0.037714198 2.2124799e-38 341 270
-0.039080046 0.71899998 -0.039080046 2.2771246e-38 289 271
-0.037503798 0.713 -0.038753927 1.9637687e-38 290 271
-0.036151983 0.71100003 -0.038645219 1.7424994e-38 291 271
-0.034856264 0.70999998 -0.038590867 1.6414087e-38 292 271
-0.033611398 0.70999998 -0.038590867 1.5860915e-38 293 271
-0.03227536 0.708 -0.038482159 1.4295397e-38 294 271
-0.031034 0.708 -0.038482159 1.4387951e-38 295 271
-0.029750559 0.70700002 -0.038427804 1.4571639e-38 296 271
-0.028470624 0.70599997 -0.038373452 1.4479443e-38 297 271
-0.027155625 0.704 -0.038264744 1.4754601e-38 298 271
-0.025884461 0.70300001 -0.038210396 1.6690709e-38 299 271
-0.024651866 0.70300001 -0.038210396 1.7521175e-38 300 271
-0.023352645 0.70099998 -0.038101684 1.6599217e-38 301 271
-0.022123558 0.70099998 -0.038101684 1.5394525e-38 302 271
-0.020894472 0.70099998 -0.038101684 1.3366221e-38 303 271
-0.019665385 0.70099998 -0.038101684 1.5032952e-38 304 271
-0.018436298 0.70099998 -0.038101684 1.6692113e-38 305 271
-0.017182667 0.69999999 -0.038047329 1.5681949e-38 306 271
-0.015955333 0.69999999 -0.038047329 1.5405362e-38 307 271
-0.01468592 0.69800001 -0.037938625 1.2457273e-38 308 271
-0.013462093 0.69800001 -0.037938625 1.1719708e-38 309 271
-0.012238266 0.69800001 -0.037938625 1.263951e-38 310 271
-0.01101444 0.69800001 -0.037938625 1.282426e-38 311 271
-0.0097906133 0.69800001 -0.037938625 1.3008279e-38 312 271
-0.0085667865 0.69800001 -0.037938625 1.2731333e-38 313 271
-0.0073429602 0.69800001 -0.037938625 1.1626786e-38 314 271
-0.006119133 0.69800001 -0.037938625 1.1718983e-38 315 271
-0.0048953067 0.69800001 -0.037938625 1.2177809e-38 316 271
-0.0036714801 0.69800001 -0.037938625 1.23622e-38 317 271
-0.0024476533 0.69800001 -0.037938625 1.2545515e-38 318 271
-0.0012238267 0.69800001 -0.037938625 1.2361484e-38 319 271
0 0.69800001 -0.037938625 1.2084542e-38 320 271
0.0012238267 0.69800001 -0.037938625 1.2176737e-38 321 271
0.0024546667 0.69999999 -0.038047329 1.2451882e-38 322 271
0.0036819996 0.69999999 -0.038047329 1.2635913e-38 323 271
0.0049093333 0.69999999 -0.038047329 1.2270008e-38 324 271
0.0061366665 0.69999999 -0.038047329 1.2177812e-38 325 271
0.0073639993 0.69999999 -0.038047329 1.2270005e-38 326 271
0.0085913334 0.69999999 -0.038047329 1.2085614e-38 327 271
0.0098326923 0.70099998 -0.038101684 1.236004e-38 328 271
0.01109334 0.70300001 -0.038210396 1.2636266e-38 329 271
0.012343466 0.704 -0.038264744 1.1621023e-38 330 271
0.013616386 0.70599997 -0.038373452 1.0514675e-38 331 271
0.01487528 0.70700002 -0.038427804 1.1341548e-38 332 271
0.016114887 0.70700002 -0.038427804 1.2355701e-38 333 271
0.017428132 0.70999998 -0.038590867 1.2358944e-38 334 271
0.0186993 0.71100003 -0.038645219 1.2358944e-38 335 271
0.020002026 0.713 -0.038753927 1.1808285e-38 336 271
0.021281958 0.71399999 -0.038808275 1.1900481e-38 337 271
0.022596961 0.71600002 -0.038916986 1.3464903e-38 338 271
0.02388566 0.71700001 -0.038971342 1.8904085e-38 339 271
0.025212931 0.71899998 -0.039080046 2.2218431e-38 340 271
0.02647358 0.71899998 -0.039080046 2.2033679e-38 341 271
-0.039080046 0.71899998 -0.040340692 2.2862364e-38 289 272
-0.037661601 0.71600002 -0.040172372 1.880865e-38 290 272
-0.036151983 0.71100003 -0.039891839 1.6134977e-38 291 272
-0.034905359 0.71100003 -0.039891839 1.6596327e-38 292 272
-0.033611398 0.70999998 -0.039835732 1.696511e-38 293 272
-0.032366529 0.70999998 -0.039835732 1.5403179e-38 294 272
-0.031034 0.708 -0.039723519 1.4204636e-38 295 272
-0.02979264 0.708 -0.039723519 1.4570191e-38 296 272
-0.028510952 0.70700002 -0.039667413 1.5584342e-38 297 272
-0.027232772 0.70599997 -0.039611302 1.4664926e-38 298 272
-0.02592128 0.704 -0.039499093 1.3558579e-38 299 272
-0.024651866 0.70300001 -0.039442986 1.420971e-38 300 272
-0.023419274 0.70300001 -0.039442986 1.5500449e-38 301 272
-0.02218668 0.70300001 -0.039442986 1.6325507e-38 302 272
-0.020954086 0.70300001 -0.039442986 1.5587583e-38 303 272
-0.019721493 0.70300001 -0.039442986 1.5497908e-38 304 272
-0.018488899 0.70300001 -0.039442986 1.5590104e-38 305 272
-0.017207211 0.70099998 -0.039330769 1.5406804e-38 306 272
-0.015955333 0.69999999 -0.039274666 1.5314609e-38 307 272
-0.014727999 0.69999999 -0.039274666 1.3009725e-38 308 272
-0.013500666 0.69999999 -0.039274666 1.2272159e-38 309 272
-0.012238266 0.69800001 -0.039162453 1.3190519e-38 310 272
-0.01101444 0.69800001 -0.039162453 1.3558942e-38 311 272
-0.0097906133 0.69800001 -0.039162453 1.3376703e-38 312 272
-0.0085667865 0.69800001 -0.039162453 1.3100474e-38 313 272
-0.0073429602 0.69800001 -0.039162453 1.2822457e-38 314 272
-0.006119133 0.69800001 -0.039162453 1.2915011e-38 315 272
-0.0049093333 0.69999999 -0.039274666 1.282246e-38 316 272
-0.0036714801 0.69800001 -0.039162453 1.2730264e-38 317 272
-0.0024476533 0.69800001 -0.039162453 1.2913572e-38 318 272
-0.0012238267 0.69800001 -0.039162453 1.2913572e-38 319 272
0 0.69800001 -0.039162453 1.2913572e-38 320 272
0.0012238267 0.69800001 -0.039162453 1.254515e-38 321 272
0.0024546667 0.69999999 -0.039274666 1.2084892e-38 322 272
0.0036819996 0.69999999 -0.039274666 1.1992695e-38 323 272
0.0049093333 0.69999999 -0.039274666 1.2634824e-38 324 272
0.0061366665 0.69999999 -0.039274666 1.2266042e-38 325 272
0.0073745195 0.70099998 -0.039330769 1.1347325e-38 326 272
0.0086036054 0.70099998 -0.039330769 1.0517565e-38 327 272
0.0098607466 0.70300001 -0.039442986 8.220234e-39 328 272
0.01109334 0.70300001 -0.039442986 7.9440058e-39 329 272
0.012343466 0.704 -0.039499093 8.2180662e-39 330 272
0.013616386 0.70599997 -0.039611302 9.1400225e-39 331 272
0.014854239 0.70599997 -0.039611302 1.1805764e-38 332 272
0.01613768 0.708 -0.039723519 1.2174547e-38 333 272
0.017428132 0.70999998 -0.039835732 1.2174544e-38 334 272
0.0186993 0.71100003 -0.039891839 1.2359294e-38 335 272
0.020030079 0.71399999 -0.040060159 1.2359291e-38 336 272
0.021341572 0.71600002 -0.040172372 1.2636237e-38 337 272
0.02262852 0.71700001 -0.040228479 1.4108475e-38 338 272
0.02388566 0.71700001 -0.040228479 1.927107e-38 339 272
0.025212931 0.71899998 -0.040340692 2.2402106e-38 340 272
0.02647358 0.71899998 -0.040340692 2.2033684e-38 341 272
-0.039080046 0.71899998 -0.041601337 2.3047831e-38 289 273
-0.037661601 0.71600002 -0.041427758 1.816365e-38 290 273
-0.036253672 0.713 -0.041254178 1.4844606e-38 291 273
-0.034905359 0.71100003 -0.041138459 1.5951331e-38 292 273
-0.033658739 0.71100003 -0.041138459 1.6781091e-38 293 273
-0.032366529 0.70999998 -0.041080594 1.6691044e-38 294 273
-0.031121666 0.70999998 -0.041080594 1.530811e-38 295 273
-0.02979264 0.708 -0.040964879 1.4570907e-38 296 273
-0.028510952 0.70700002 -0.040907022 1.5308831e-38 297 273
-0.027232772 0.70599997 -0.040849157 1.4666005e-38 298 273
-0.02592128 0.704 -0.040733438 1.2729897e-38 299 273
-0.024686933 0.704 -0.040733438 1.3376002e-38 300 273
-0.023419274 0.70300001 -0.040675577 1.5127719e-38 301 273
-0.02218668 0.70300001 -0.040675577 1.6326968e-38 302 273
-0.020954086 0.70300001 -0.040675577 1.6142577e-38 303 273
-0.019721493 0.70300001 -0.040675577 1.5681949e-38 304 273
-0.018488899 0.70300001 -0.040675577 1.5497558e-38 305 273
-0.017207211 0.70099998 -0.040559858 1.5774145e-38 306 273
-0.015978126 0.70099998 -0.040559858 1.5681949e-38 307 273
-0.014727999 0.69999999 -0.040502001 1.2364356e-38 308 273
-0.013500666 0.69999999 -0.040502001 1.0612278e-38 309 273
-0.012273333 0.69999999 -0.040502001 1.1809752e-38 310 273
-0.01101444 0.69800001 -0.040386278 1.2823904e-38 311 273
-0.0097906133 0.69800001 -0.040386278 1.3652576e-38 312 273
-0.0085667865 0.69800001 -0.040386278 1.3928803e-38 313 273
-0.0073429602 0.69800001 -0.040386278 1.4846798e-38 314 273
-0.0061366665 0.69999999 -0.040502001 1.4754601e-38 315 273
-0.0049093333 0.69999999 -0.040502001 1.4020999e-38 316 273
-0.0036714801 0.69800001 -0.040386278 1.4113196e-38 317 273
-0.0024476533 0.69800001 -0.040386278 1.3555706e-38 318 273
-0.0012273333 0.69999999 -0.040502001 1.3095087e-38 319 273
0 0.69800001 -0.040386278 1.3829773e-38 320 273
0.0012238267 0.69800001 -0.040386278 1.3460992e-38 321 273
0.0024546667 0.69999999 -0.040502001 1.1349478e-38 322 273
0.0036819996 0.69999999 -0.040502001 1.0704108e-38 323 273
0.0049093333 0.69999999 -0.040502001 1.0977451e-38 324 273
0.0061454331 0.70099998 -0.040559858 1.0516475e-38 325 273
0.0073745195 0.70099998 -0.040559858 9.5059183e-39 326 273
0.0086036054 0.70099998 -0.040559858 9.2293314e-39 327 273
0.0098607466 0.70300001 -0.040675577 7.5773659e-39 328 273
0.011109119 0.704 -0.040733438 7.8539542e-39 329 273
0.012343466 0.704 -0.040733438 1.0241688e-38 330 273
0.013616386 0.70599997 -0.040849157 1.125548e-38 331 273
0.014854239 0.70599997 -0.040849157 1.2451855e-38 332 273
0.01613768 0.708 -0.040964879 1.2544051e-38 333 273
0.017428132 0.70999998 -0.041080594 1.2358575e-38 334 273
0.018751899 0.713 -0.041254178 1.2634802e-38 335 273
0.020086186 0.71600002 -0.041427758 1.3002143e-38 336 273
0.021371379 0.71700001 -0.041485619 1.3186535e-38 337 273
0.02262852 0.71700001 -0.041485619 1.4109194e-38 338 273
0.02388566 0.71700001 -0.041485619 1.927179e-38 339 273
0.0251428 0.71700001 -0.041485619 2.2402109e-38 340 273
0.02639994 0.71700001 -0.041485619 2.1941131e-38 341 273
-0.039134402 0.72000003 -0.042921603 2.3140027e-38 289 274
-0.037819397 0.71899998 -0.042861983 1.7334599e-38 290 274
-0.036406212 0.71600002 -0.042683143 1.3277991e-38 291 274
-0.035003547 0.713 -0.042504307 1.4569826e-38 292 274
-0.033753417 0.713 -0.042504307 1.5399226e-38 293 274
-0.032412119 0.71100003 -0.042385083 1.5398154e-38 294 274
-0.031165501 0.71100003 -0.042385083 1.5582904e-38 295 274
-0.029876797 0.70999998 -0.042325463 1.5491071e-38 296 274
-0.02855128 0.708 -0.042206239 1.5675463e-38 297 274
-0.027271347 0.70700002 -0.042146627 1.5124457e-38 298 274
-0.025994917 0.70599997 -0.042087011 1.3741522e-38 299 274
-0.024686933 0.704 -0.041967787 1.3283434e-38 300 274
-0.023452586 0.704 -0.041967787 1.3928803e-38 301 274
-0.02218668 0.70300001 -0.041908171 1.4853636e-38 302 274
-0.020954086 0.70300001 -0.041908171 1.5499006e-38 303 274
-0.019749546 0.704 -0.041967787 1.5406804e-38 304 274
-0.018488899 0.70300001 -0.041908171 1.5314609e-38 305 274
-0.017256306 0.70300001 -0.041908171 1.5683749e-38 306 274
-0.015978126 0.70099998 -0.041788943 1.540716e-38 307 274
-0.014749039 0.70099998 -0.041788943 1.1167253e-38 308 274
-0.013500666 0.69999999 -0.041729331 7.6638204e-39 309 274
-0.012273333 0.69999999 -0.041729331 6.8401932e-39 310 274
-0.011045999 0.69999999 -0.041729331 7.30117e-39 311 274
-0.0098186666 0.69999999 -0.041729331 7.4841109e-39 312 274
-0.0085913334 0.69999999 -0.041729331 8.2220347e-39 313 274
-0.0073639993 0.69999999 -0.041729331 1.1895099e-38 314 274
-0.0061366665 0.69999999 -0.041729331 1.1802544e-38 315 274
-0.0049093333 0.69999999 -0.041729331 1.1810805e-38 316 274
-0.0036714801 0.69800001 -0.041610107 1.3009348e-38 317 274
-0.0024476533 0.69800001 -0.041610107 1.0330269e-38 318 274
-0.0012273333 0.69999999 -0.041729331 9.3157565e-39 319 274
0 0.69999999 -0.041729331 1.1702066e-38 320 274
