# .PCD v.7 - Point Cloud Data file format
FIELDS x y z rgb imX imY
SIZE 4 4 4 4 4 4
TYPE F F F F F F
COUNT 1 1 1 1 1 1
WIDTH 831
HEIGHT 1
VIEWPOINT 0 0 0 1 0 0 0
POINTS 831
DATA ascii
-0.03318534 0.70099998 -0.019665385 1.4190231e-38 293 256
-0.031910665 0.69999999 -0.019637333 1.0605795e-38 294 256
-0.030595668 0.69800001 -0.019581227 1.0144817e-38 295 256
-0.029371841 0.69800001 -0.019581227 1.4286793e-38 296 256
-0.028107686 0.69700003 -0.019553173 1.5945954e-38 297 256
-0.026885614 0.69700003 -0.019553173 1.6225767e-38 298 256
-0.025663542 0.69700003 -0.019553173 1.7055886e-38 299 256
-0.024336265 0.69400001 -0.019469013 1.6325155e-38 300 256
-0.02308614 0.69300002 -0.01944096 1.6417351e-38 301 256
-0.021807959 0.69099998 -0.019384852 1.5682656e-38 302 256
-0.020596405 0.69099998 -0.019384852 1.5590101e-38 303 256
-0.019384852 0.69099998 -0.019384852 1.5497543e-38 304 256
-0.0181733 0.69099998 -0.019384852 1.5220596e-38 305 256
-0.016961746 0.69099998 -0.019384852 1.4759973e-38 306 256
-0.015750192 0.69099998 -0.019384852 1.3930213e-38 307 256
-0.014517599 0.69 -0.019356798 1.3561797e-38 308 256
-0.0133078 0.69 -0.019356798 1.2824232e-38 309 256
-0.012062933 0.68800002 -0.019300694 1.1903721e-38 310 256
-0.010856641 0.68800002 -0.019300694 1.1535297e-38 311 256
-0.0096503468 0.68800002 -0.019300694 1.0616579e-38 312 256
-0.0084440531 0.68800002 -0.019300694 1.0616579e-38 313 256
-0.0072377604 0.68800002 -0.019300694 1.098536e-38 314 256
-0.0060314666 0.68800002 -0.019300694 1.1169753e-38 315 256
-0.0048251734 0.68800002 -0.019300694 1.1630008e-38 316 256
-0.0036188802 0.68800002 -0.019300694 1.1722204e-38 317 256
-0.0024195998 0.69 -0.019356798 1.2363976e-38 318 256
-0.0012097999 0.69 -0.019356798 1.2548369e-38 319 256
0 0.69 -0.019356798 1.2915712e-38 320 256
0.0012097999 0.69 -0.019356798 1.3191939e-38 321 256
0.0024231065 0.69099998 -0.019384852 1.3561084e-38 322 256
0.0036346598 0.69099998 -0.019384852 1.4021702e-38 323 256
0.0048462129 0.69099998 -0.019384852 1.4481964e-38 324 256
0.0060577663 0.69099998 -0.019384852 1.3651845e-38 325 256
0.0072903596 0.69300002 -0.01944096 1.2547651e-38 326 256
0.0085054198 0.69300002 -0.01944096 1.2455455e-38 327 256
0.0097345067 0.69400001 -0.019469013 1.34642e-38 328 256
0.01095132 0.69400001 -0.019469013 1.327945e-38 329 256
0.0122032 0.69599998 -0.019525118 1.2447168e-38 330 256
0.013423519 0.69599998 -0.019525118 1.1801799e-38 331 256
0.01466488 0.69700003 -0.019553173 1.0516103e-38 332 256
0.015909746 0.69800001 -0.019581227 1.1253668e-38 333 256
0.017182667 0.69999999 -0.019637333 1.1808285e-38 334 256
0.018409999 0.69999999 -0.019637333 1.1623893e-38 335 256
0.019721493 0.70300001 -0.019721493 1.1621729e-38 336 256
0.020954086 0.70300001 -0.019721493 1.1529175e-38 337 256
0.022218239 0.704 -0.019749546 1.2358923e-38 338 256
0.023452586 0.704 -0.019749546 1.724529e-38 339 256
-0.038264744 0.704 -0.020983893 2.249646e-38 289 257
-0.036872596 0.70099998 -0.020894472 1.8896864e-38 290 257
-0.035643511 0.70099998 -0.020894472 1.4655864e-38 291 257
-0.034512613 0.70300001 -0.020954086 1.4276652e-38 292 257
-0.033280019 0.70300001 -0.020954086 1.4184097e-38 293 257
-0.031910665 0.69999999 -0.020864666 1.2072608e-38 294 257
-0.030595668 0.69800001 -0.020805053 1.0966261e-38 295 257
-0.029371841 0.69800001 -0.020805053 1.2519929e-38 296 257
-0.028148014 0.69800001 -0.020805053 1.3350049e-38 297 257
-0.026885614 0.69700003 -0.020775247 1.44636e-38 298 257
-0.025663542 0.69700003 -0.020775247 1.6952882e-38 299 257
-0.0244064 0.69599998 -0.020745439 1.6503784e-38 300 257
-0.02308614 0.69300002 -0.020656019 1.7241349e-38 301 257
-0.021871079 0.69300002 -0.020656019 1.604964e-38 302 257
-0.020656019 0.69300002 -0.020656019 1.5865249e-38 303 257
-0.01944096 0.69300002 -0.020656019 1.531424e-38 304 257
-0.0181733 0.69099998 -0.020596405 1.5222045e-38 305 257
-0.016961746 0.69099998 -0.020596405 1.540536e-38 306 257
-0.015750192 0.69099998 -0.020596405 1.5129131e-38 307 257
-0.014538639 0.69099998 -0.020596405 1.5405357e-38 308 257
-0.0133078 0.69 -0.020566599 1.4759987e-38 309 257
-0.012097999 0.69 -0.020566599 1.4667072e-38 310 257
-0.010888199 0.69 -0.020566599 1.4851823e-38 311 257
-0.0096783992 0.69 -0.020566599 1.4851467e-38 312 257
-0.0084686 0.69 -0.020566599 1.4851467e-38 313 257
-0.0072587994 0.69 -0.020566599 1.5034779e-38 314 257
-0.0060314666 0.68800002 -0.020506985 1.5034779e-38 315 257
-0.0048251734 0.68800002 -0.020506985 1.4851467e-38 316 257
-0.0036188802 0.68800002 -0.020506985 1.4574879e-38 317 257
-0.0024195998 0.69 -0.020566599 1.4848946e-38 318 257
-0.0012097999 0.69 -0.020566599 1.5033336e-38 319 257
0 0.69 -0.020566599 1.4664908e-38 320 257
0.0012097999 0.69 -0.020566599 1.4572712e-38 321 257
0.0024231065 0.69099998 -0.020596405 1.4390119e-38 322 257
0.0036346598 0.69099998 -0.020596405 1.4390119e-38 323 257
0.0048462129 0.69099998 -0.020596405 1.4479443e-38 324 257
0.0060753003 0.69300002 -0.020656019 1.2543335e-38 325 257
0.0072903596 0.69300002 -0.020656019 9.2329244e-39 326 257
0.0085054198 0.69300002 -0.020656019 9.2329244e-39 327 257
0.0097345067 0.69400001 -0.020685827 1.1251865e-38 328 257
0.010982879 0.69599998 -0.020745439 1.0883441e-38 329 257
0.0122032 0.69599998 -0.020745439 1.0512863e-38 330 257
0.013442807 0.69700003 -0.020775247 1.0512863e-38 331 257
0.01468592 0.69800001 -0.020805053 9.5023184e-39 332 257
0.015955333 0.69999999 -0.020864666 1.051683e-38 333 257
0.017182667 0.69999999 -0.020864666 1.1715369e-38 334 257
0.018436298 0.70099998 -0.020894472 1.1530978e-38 335 257
0.019721493 0.70300001 -0.020954086 1.1621729e-38 336 257
0.020983893 0.704 -0.020983893 1.1621729e-38 337 257
0.022281358 0.70599997 -0.021043506 1.2542588e-38 338 257
0.023519212 0.70599997 -0.021043506 1.733712e-38 339 257
-0.039499093 0.704 -0.022218239 2.2771965e-38 288 258
-0.038264744 0.704 -0.022218239 2.2679769e-38 289 258
-0.036977798 0.70300001 -0.02218668 1.9542953e-38 290 258
-0.035745207 0.70300001 -0.02218668 1.5578541e-38 291 258
-0.034561705 0.704 -0.022218239 1.491985e-38 292 258
-0.033280019 0.70300001 -0.02218668 1.4458874e-38 293 258
-0.032047424 0.70300001 -0.02218668 1.3538718e-38 294 258
-0.030683333 0.69999999 -0.022091998 1.307774e-38 295 258
-0.029455997 0.69999999 -0.022091998 1.3709808e-38 296 258
-0.028148014 0.69800001 -0.02202888 1.0943579e-38 297 258
-0.026924185 0.69800001 -0.02202888 1.3782607e-38 298 258
-0.025663542 0.69700003 -0.02199732 1.4520172e-38 299 258
-0.0244064 0.69599998 -0.021965759 1.4086191e-38 300 258
-0.023119451 0.69400001 -0.021902639 1.6943896e-38 301 258
-0.021871079 0.69300002 -0.021871079 1.5214845e-38 302 258
-0.020656019 0.69300002 -0.021871079 1.6413028e-38 303 258
-0.01944096 0.69300002 -0.021871079 1.5496839e-38 304 258
-0.018225901 0.69300002 -0.021871079 1.5404644e-38 305 258
-0.016961746 0.69099998 -0.021807959 1.4944747e-38 306 258
-0.015750192 0.69099998 -0.021807959 1.5037302e-38 307 258
-0.014538639 0.69099998 -0.021807959 1.4485924e-38 308 258
-0.013327086 0.69099998 -0.021807959 1.1904447e-38 309 258
-0.012097999 0.69 -0.021776399 7.9501113e-39 310 258
-0.010888199 0.69 -0.021776399 9.056819e-39 311 258
-0.0096783992 0.69 -0.021776399 1.1997018e-38 312 258
-0.0084686 0.69 -0.021776399 1.2918974e-38 313 258
-0.0072587994 0.69 -0.021776399 1.3465311e-38 314 258
-0.0060489997 0.69 -0.021776399 1.3096168e-38 315 258
-0.0048251734 0.68800002 -0.021713281 1.2545866e-38 316 258
-0.0036188802 0.68800002 -0.021713281 1.2085246e-38 317 258
-0.0024195998 0.69 -0.021776399 1.1623186e-38 318 258
-0.0012097999 0.69 -0.021776399 1.1254764e-38 319 258
0 0.69 -0.021776399 1.1530625e-38 320 258
0.0012097999 0.69 -0.021776399 1.1991603e-38 321 258
0.0024231065 0.69099998 -0.021807959 1.1258704e-38 322 258
0.0036451798 0.69300002 -0.021871079 1.0889922e-38 323 258
0.00486024 0.69300002 -0.021871079 1.2724131e-38 324 258
0.0060753003 0.69300002 -0.021871079 1.2170957e-38 325 258
0.0073008798 0.69400001 -0.021902639 9.0485331e-39 326 258
0.0085176928 0.69400001 -0.021902639 8.3109681e-39 327 258
0.0097345067 0.69400001 -0.021902639 1.0605426e-38 328 258
0.010982879 0.69599998 -0.021965759 1.0605426e-38 329 258
0.012220734 0.69700003 -0.02199732 1.0793413e-38 330 258
0.013442807 0.69700003 -0.02199732 1.1438783e-38 331 258
0.01468592 0.69800001 -0.02202888 1.1991232e-38 332 258
0.015955333 0.69999999 -0.022091998 1.1991232e-38 333 258
0.017207211 0.70099998 -0.022123558 1.2541888e-38 334 258
0.018436298 0.70099998 -0.022123558 1.2173105e-38 335 258
0.019721493 0.70300001 -0.02218668 1.1346216e-38 336 258
0.020983893 0.704 -0.022218239 1.1346216e-38 337 258
0.022281358 0.70599997 -0.022281358 1.2909929e-38 338 258
0.023519212 0.70599997 -0.022281358 1.8072884e-38 339 258
-0.038264744 0.704 -0.023452586 2.2588652e-38 289 259
-0.037030395 0.704 -0.023452586 1.9818463e-38 290 259
-0.035796054 0.704 -0.023452586 1.6499421e-38 291 259
-0.034561705 0.704 -0.023452586 1.5936525e-38 292 259
-0.03332736 0.704 -0.023452586 1.4461393e-38 293 259
-0.032093015 0.704 -0.023452586 1.4550346e-38 294 259
-0.030814834 0.70300001 -0.023419274 1.3628749e-38 295 259
-0.029455997 0.69999999 -0.023319334 1.4352994e-38 296 259
-0.028148014 0.69800001 -0.023252707 1.1310178e-38 297 259
-0.026924185 0.69800001 -0.023252707 1.3591673e-38 298 259
-0.025663542 0.69700003 -0.023219392 1.2397793e-38 299 259
-0.0244064 0.69599998 -0.023186078 1.1663149e-38 300 259
-0.023119451 0.69400001 -0.023119451 1.5442809e-38 301 259
-0.021871079 0.69300002 -0.02308614 1.3448375e-38 302 259
-0.020656019 0.69300002 -0.02308614 1.6490831e-38 303 259
-0.01944096 0.69300002 -0.02308614 1.503263e-38 304 259
-0.018225901 0.69300002 -0.02308614 1.5677999e-38 305 259
-0.016961746 0.69099998 -0.023019511 1.448593e-38 306 259
-0.015750192 0.69099998 -0.023019511 1.4578126e-38 307 259
-0.014538639 0.69099998 -0.023019511 1.4576675e-38 308 259
-0.013327086 0.69099998 -0.023019511 1.1165435e-38 309 259
-0.012115533 0.69099998 -0.023019511 2.4302523e-39 310 259
-0.010888199 0.69 -0.022986198 2.5224479e-39 311 259
-0.0096783992 0.69 -0.022986198 6.5629015e-39 312 259
-0.0084686 0.69 -0.022986198 9.3287704e-39 313 259
-0.0072587994 0.69 -0.022986198 1.1439541e-38 314 259
-0.0060489997 0.69 -0.022986198 9.780378e-39 315 259
-0.0048251734 0.68800002 -0.022919573 8.8605671e-39 316 259
-0.0036188802 0.68800002 -0.022919573 8.491786e-39 317 259
-0.0024195998 0.69 -0.022986198 8.3077465e-39 318 259
-0.0012115532 0.69099998 -0.023019511 8.2155509e-39 319 259
0 0.69099998 -0.023019511 8.9516627e-39 320 259
0.0012115532 0.69099998 -0.023019511 9.320804e-39 321 259
0.0024231065 0.69099998 -0.023019511 8.3120373e-39 322 259
0.0036451798 0.69300002 -0.02308614 8.3120373e-39 323 259
0.00486024 0.69300002 -0.02308614 1.1067486e-38 324 259
0.0060753003 0.69300002 -0.02308614 1.1712856e-38 325 259
0.0073008798 0.69400001 -0.023119451 1.0702659e-38 326 259
0.0085176928 0.69400001 -0.023119451 1.0518268e-38 327 259
0.0097625591 0.69599998 -0.023186078 1.1435906e-38 328 259
0.01099866 0.69700003 -0.023219392 1.134371e-38 329 259
0.012220734 0.69700003 -0.023219392 1.1255833e-38 330 259
0.013462093 0.69800001 -0.023252707 1.1993398e-38 331 259
0.014727999 0.69999999 -0.023319334 1.2544407e-38 332 259
0.015955333 0.69999999 -0.023319334 1.2451853e-38 333 259
0.017207211 0.70099998 -0.023352645 1.2267096e-38 334 259
0.018488899 0.70300001 -0.023419274 1.1990868e-38 335 259
0.019721493 0.70300001 -0.023419274 1.1530963e-38 336 259
0.020983893 0.704 -0.023452586 1.1346213e-38 337 259
0.022281358 0.70599997 -0.023519212 1.281773e-38 338 259
0.023519212 0.70599997 -0.023519212 1.8165436e-38 339 259
-0.038590867 0.70999998 -0.024897331 2.2680848e-38 289 260
-0.037135597 0.70599997 -0.024757065 1.9541881e-38 290 260
-0.035897743 0.70599997 -0.024757065 1.6130642e-38 291 260
-0.034659892 0.70599997 -0.024757065 1.704432e-38 292 260
-0.03332736 0.704 -0.024686933 1.7412742e-38 293 260
-0.032093015 0.704 -0.024686933 1.6675512e-38 294 260
-0.030858666 0.704 -0.024686933 1.27111e-38 295 260
-0.029498078 0.70099998 -0.024581732 1.3885873e-38 296 260
-0.028228667 0.69999999 -0.024546666 1.3240503e-38 297 260
-0.026924185 0.69800001 -0.024476532 1.4336424e-38 298 260
-0.025700359 0.69800001 -0.024476532 1.442862e-38 299 260
-0.024441468 0.69700003 -0.024441468 1.42421e-38 300 260
-0.023186078 0.69599998 -0.0244064 1.3504535e-38 301 260
-0.021902639 0.69400001 -0.024336265 1.3132553e-38 302 260
-0.020685827 0.69400001 -0.024336265 1.5160857e-38 303 260
-0.019469013 0.69400001 -0.024336265 1.2812007e-38 304 260
-0.018225901 0.69300002 -0.024301201 1.5946657e-38 305 260
-0.01701084 0.69300002 -0.024301201 1.5129499e-38 306 260
-0.015795778 0.69300002 -0.024301201 1.5129499e-38 307 260
-0.014580719 0.69300002 -0.024301201 1.4944387e-38 308 260
-0.01336566 0.69300002 -0.024301201 1.2731333e-38 309 260
-0.012115533 0.69099998 -0.024231065 8.3167456e-39 310 260
-0.01090398 0.69099998 -0.024231065 7.486985e-39 311 260
-0.0096924258 0.69099998 -0.024231065 8.4021239e-39 312 260
-0.008480873 0.69099998 -0.024231065 8.4021239e-39 313 260
-0.0072693196 0.69099998 -0.024231065 9.7803752e-39 314 260
-0.0060577663 0.69099998 -0.024231065 9.2272015e-39 315 260
-0.0048462129 0.69099998 -0.024231065 9.5041387e-39 316 260
-0.0036346598 0.69099998 -0.024231065 1.0333899e-38 317 260
-0.0024231065 0.69099998 -0.024231065 1.0612634e-38 318 260
-0.0012115532 0.69099998 -0.024231065 1.0428245e-38 319 260
0 0.69099998 -0.024231065 9.9661762e-39 320 260
0.0012115532 0.69099998 -0.024231065 1.0795578e-38 321 260
0.00243012 0.69300002 -0.024301201 1.0063405e-38 322 260
0.0036451798 0.69300002 -0.024301201 1.0432186e-38 323 260
0.00486024 0.69300002 -0.024301201 1.2636251e-38 324 260
0.0060840664 0.69400001 -0.024336265 1.2636251e-38 325 260
0.0073008798 0.69400001 -0.024336265 1.3002508e-38 326 260
0.0085176928 0.69400001 -0.024336265 1.3094705e-38 327 260
0.0097625591 0.69599998 -0.0244064 1.2634802e-38 328 260
0.01099866 0.69700003 -0.024441468 1.226638e-38 329 260
0.012220734 0.69700003 -0.024441468 1.1350184e-38 330 260
0.013462093 0.69800001 -0.024476532 1.1350184e-38 331 260
0.014727999 0.69999999 -0.024546666 1.1715369e-38 332 260
0.015978126 0.70099998 -0.024581732 1.1715369e-38 333 260
0.017207211 0.70099998 -0.024581732 1.2449336e-38 334 260
0.018488899 0.70300001 -0.024651866 1.254189e-38 335 260
0.019749546 0.704 -0.024686933 1.1991585e-38 336 260
0.021043506 0.70599997 -0.024757065 1.1899388e-38 337 260
0.022281358 0.70599997 -0.024757065 1.2819887e-38 338 260
0.023519212 0.70599997 -0.024757065 1.7890288e-38 339 260
0.024932399 0.71100003 -0.024932399 2.1113522e-38 340 260
-0.038590867 0.70999998 -0.026142199 2.2589008e-38 289 261
-0.037345998 0.70999998 -0.026142199 1.8529171e-38 290 261
-0.035948593 0.70700002 -0.02603174 1.5025737e-38 291 261
-0.034659892 0.70599997 -0.025994917 1.6861739e-38 292 261
-0.033422034 0.70599997 -0.025994917 1.7784055e-38 293 261
-0.032093015 0.704 -0.02592128 1.7321606e-38 294 261
-0.030858666 0.704 -0.02592128 1.3818173e-38 295 261
-0.029582238 0.70300001 -0.025884461 1.4445495e-38 296 261
-0.028268991 0.70099998 -0.025810819 1.3431343e-38 297 261
-0.027001332 0.69999999 -0.025773998 1.4246358e-38 298 261
-0.025700359 0.69800001 -0.025700359 1.4061967e-38 299 261
-0.024441468 0.69700003 -0.025663542 1.4247828e-38 300 261
-0.023219392 0.69700003 -0.025663542 1.3878686e-38 301 261
-0.021965759 0.69599998 -0.025626717 1.3043537e-38 302 261
-0.020745439 0.69599998 -0.025626717 1.147944e-38 303 261
-0.019525118 0.69599998 -0.025626717 1.3714493e-38 304 261
-0.0182522 0.69400001 -0.025553079 1.8969644e-38 305 261
-0.01701084 0.69300002 -0.02551626 1.5405357e-38 306 261
-0.015795778 0.69300002 -0.02551626 1.5405357e-38 307 261
-0.014580719 0.69300002 -0.02551626 1.4944034e-38 308 261
-0.01336566 0.69300002 -0.02551626 1.3100121e-38 309 261
-0.012150601 0.69300002 -0.02551626 1.1167977e-38 310 261
-0.01090398 0.69099998 -0.025442619 1.0983585e-38 311 261
-0.0096924258 0.69099998 -0.025442619 1.1257285e-38 312 261
-0.0085054198 0.69300002 -0.02551626 1.1257285e-38 313 261
-0.0072903596 0.69300002 -0.02551626 1.1717903e-38 314 261
-0.0060753003 0.69300002 -0.02551626 1.1441676e-38 315 261
-0.0048462129 0.69099998 -0.025442619 1.1990544e-38 316 261
-0.0036346598 0.69099998 -0.025442619 1.2359686e-38 317 261
-0.0024231065 0.69099998 -0.025442619 1.1902301e-38 318 261
-0.0012115532 0.69099998 -0.025442619 1.1810106e-38 319 261
0 0.69099998 -0.025442619 1.1624991e-38 320 261
0.0012115532 0.69099998 -0.025442619 1.1071818e-38 321 261
0.00243012 0.69300002 -0.02551626 9.8775917e-39 322 261
0.0036451798 0.69300002 -0.02551626 1.0338568e-38 323 261
0.00486024 0.69300002 -0.02551626 1.1624986e-38 324 261
0.0060840664 0.69400001 -0.025553079 1.1624986e-38 325 261
0.0073008798 0.69400001 -0.025553079 1.208343e-38 326 261
0.0085176928 0.69400001 -0.025553079 1.2267822e-38 327 261
0.0097625591 0.69599998 -0.025626717 1.2543683e-38 328 261
0.01099866 0.69700003 -0.025663542 1.2543683e-38 329 261
0.012220734 0.69700003 -0.025663542 1.199303e-38 330 261
0.013462093 0.69800001 -0.025700359 1.1716443e-38 331 261
0.014727999 0.69999999 -0.025773998 1.1897963e-38 332 261
0.015978126 0.70099998 -0.025810819 1.1990158e-38 333 261
0.017256306 0.70300001 -0.025884461 1.1990514e-38 334 261
0.018515198 0.704 -0.02592128 1.2174547e-38 335 261
0.019749546 0.704 -0.02592128 1.2636237e-38 336 261
0.021043506 0.70599997 -0.025994917 1.2636237e-38 337 261
0.022344479 0.708 -0.026068559 1.3004998e-38 338 261
0.023685781 0.71100003 -0.026179021 1.761478e-38 339 261
0.024932399 0.71100003 -0.026179021 2.1205715e-38 340 261
-0.038590867 0.70999998 -0.027387066 2.2680848e-38 289 262
-0.037345998 0.70999998 -0.027387066 1.8436975e-38 290 262
-0.03599944 0.708 -0.027309919 1.4380367e-38 291 262
-0.034708988 0.70700002 -0.027271347 1.5847591e-38 292 262
-0.033422034 0.70599997 -0.027232772 1.6400765e-38 293 262
-0.032184184 0.70599997 -0.027232772 1.7043982e-38 294 262
-0.030858666 0.704 -0.027155625 1.5568852e-38 295 262
-0.029582238 0.70300001 -0.027117053 1.6485381e-38 296 262
-0.028268991 0.70099998 -0.027039904 1.5194642e-38 297 262
-0.027001332 0.69999999 -0.027001332 1.4634612e-38 298 262
-0.025700359 0.69800001 -0.026924185 1.3067288e-38 299 262
-0.024476532 0.69800001 -0.026924185 1.4435469e-38 300 262
-0.023219392 0.69700003 -0.026885614 1.3882654e-38 301 262
-0.02199732 0.69700003 -0.026885614 1.4059494e-38 302 262
-0.020775247 0.69700003 -0.026885614 1.2584005e-38 303 262
-0.019553173 0.69700003 -0.026885614 1.4174043e-38 304 262
-0.0182522 0.69400001 -0.026769891 1.887602e-38 305 262
-0.017035386 0.69400001 -0.026769891 1.5589388e-38 306 262
-0.015818574 0.69400001 -0.026769891 1.5497192e-38 307 262
-0.01460176 0.69400001 -0.026769891 1.475999e-38 308 262
-0.01336566 0.69300002 -0.02673132 1.3008273e-38 309 262
-0.012150601 0.69300002 -0.02673132 1.1166882e-38 310 262
-0.01090398 0.69099998 -0.026654173 1.1166882e-38 311 262
-0.0096924258 0.69099998 -0.026654173 1.2084878e-38 312 262
-0.0085054198 0.69300002 -0.02673132 1.2453302e-38 313 262
-0.0072903596 0.69300002 -0.02673132 1.2546575e-38 314 262
-0.0060753003 0.69300002 -0.02673132 1.2546575e-38 315 262
-0.00486024 0.69300002 -0.02673132 1.2451508e-38 316 262
-0.0036451798 0.69300002 -0.02673132 1.2451508e-38 317 262
-0.00243012 0.69300002 -0.02673132 1.0891023e-38 318 262
-0.00121506 0.69300002 -0.02673132 1.0429685e-38 319 262
0 0.69300002 -0.02673132 1.1441326e-38 320 262
0.00121506 0.69300002 -0.02673132 1.1072183e-38 321 262
0.00243012 0.69300002 -0.02673132 9.4159031e-39 322 262
0.0036504399 0.69400001 -0.026769891 9.8772414e-39 323 262
0.0048672534 0.69400001 -0.026769891 1.0245301e-38 324 262
0.0060840664 0.69400001 -0.026769891 1.0706279e-38 325 262
0.0073008798 0.69400001 -0.026769891 1.1992326e-38 326 262
0.0085422397 0.69599998 -0.026847038 1.1992326e-38 327 262
0.0097625591 0.69599998 -0.026847038 1.2268543e-38 328 262
0.01099866 0.69700003 -0.026885614 1.2176348e-38 329 262
0.012238266 0.69800001 -0.026924185 1.2175626e-38 330 262
0.013462093 0.69800001 -0.026924185 1.208343e-38 331 262
0.014727999 0.69999999 -0.027001332 1.1991588e-38 332 262
0.015978126 0.70099998 -0.027039904 1.1899032e-38 333 262
0.017256306 0.70300001 -0.027117053 1.1898313e-38 334 262
0.018515198 0.704 -0.027155625 1.2267096e-38 335 262
0.019805651 0.70599997 -0.027232772 1.3095414e-38 336 262
0.021043506 0.70599997 -0.027232772 1.3095414e-38 337 262
0.022407599 0.70999998 -0.027387066 1.3096114e-38 338 262
0.023685781 0.71100003 -0.027425639 1.7890288e-38 339 262
0.025107734 0.71600002 -0.027618507 2.1481582e-38 340 262
0.026363119 0.71600002 -0.027618507 2.2311342e-38 341 262
-0.038590867 0.70999998 -0.028631933 2.2956359e-38 289 263
-0.037345998 0.70999998 -0.028631933 1.9358208e-38 290 263
-0.03599944 0.708 -0.02855128 1.5393796e-38 291 263
-0.034708988 0.70700002 -0.028510952 1.6212054e-38 292 263
-0.033422034 0.70599997 -0.028470624 1.5935827e-38 293 263
-0.032184184 0.70599997 -0.028470624 1.6119152e-38 294 263
-0.030858666 0.704 -0.028389972 1.6119152e-38 295 263
-0.029624319 0.704 -0.028389972 1.6764506e-38 296 263
-0.028349647 0.70300001 -0.028349647 1.6396082e-38 297 263
-0.027039904 0.70099998 -0.028268991 1.5567741e-38 298 263
-0.025773998 0.69999999 -0.028228667 1.5106763e-38 299 263
-0.024476532 0.69800001 -0.028148014 1.5645897e-38 300 263
-0.023252707 0.69800001 -0.028148014 1.3432843e-38 301 263
-0.02199732 0.69700003 -0.028107686 1.3966589e-38 302 263
-0.020775247 0.69700003 -0.028107686 1.2399262e-38 303 263
-0.019553173 0.69700003 -0.028107686 1.4633582e-38 304 263
-0.018304799 0.69599998 -0.028067358 1.9335559e-38 305 263
-0.017035386 0.69400001 -0.027986705 1.5864893e-38 306 263
-0.015818574 0.69400001 -0.027986705 1.5588306e-38 307 263
-0.01460176 0.69400001 -0.027986705 1.4392283e-38 308 263
-0.013384946 0.69400001 -0.027986705 1.3285936e-38 309 263
-0.012168133 0.69400001 -0.027986705 1.217851e-38 310 263
-0.010935539 0.69300002 -0.027946379 1.2086314e-38 311 263
-0.0097204801 0.69300002 -0.027946379 1.2820645e-38 312 263
-0.0085054198 0.69300002 -0.027946379 1.3096872e-38 313 263
-0.0072903596 0.69300002 -0.027946379 1.2730247e-38 314 263
-0.0060753003 0.69300002 -0.027946379 1.2638052e-38 315 263
-0.00486024 0.69300002 -0.027946379 1.2728812e-38 316 263
-0.0036451798 0.69300002 -0.027946379 1.2821367e-38 317 263
-0.00243012 0.69300002 -0.027946379 1.2820292e-38 318 263
-0.00121506 0.69300002 -0.027946379 1.1437357e-38 319 263
0 0.69300002 -0.027946379 1.134553e-38 320 263
0.0012168133 0.69400001 -0.027986705 1.1622117e-38 321 263
0.0024336267 0.69400001 -0.027986705 1.0245304e-38 322 263
0.0036504399 0.69400001 -0.027986705 9.7839654e-39 323 263
0.0048672534 0.69400001 -0.027986705 9.4177038e-39 324 263
0.0060840664 0.69400001 -0.027986705 9.8786819e-39 325 263
0.0073219193 0.69599998 -0.028067358 1.1259083e-38 326 263
0.0085422397 0.69599998 -0.028067358 1.153531e-38 327 263
0.0097765867 0.69700003 -0.028107686 1.2085594e-38 328 263
0.01099866 0.69700003 -0.028107686 1.2085594e-38 329 263
0.012238266 0.69800001 -0.028148014 1.2543685e-38 330 263
0.013500666 0.69999999 -0.028228667 1.245149e-38 331 263
0.014727999 0.69999999 -0.028228667 1.2175976e-38 332 263
0.016023712 0.70300001 -0.028349647 1.1991585e-38 333 263
0.017256306 0.70300001 -0.028349647 1.1990868e-38 334 263
0.018515198 0.704 -0.028389972 1.2267096e-38 335 263
0.019805651 0.70599997 -0.028470624 1.2544038e-38 336 263
0.021043506 0.70599997 -0.028470624 1.2544038e-38 337 263
0.022407599 0.70999998 -0.028631933 1.3096114e-38 338 263
0.023652466 0.70999998 -0.028631933 1.7982483e-38 339 263
0.025037598 0.71399999 -0.028793238 2.1481226e-38 340 263
0.026289478 0.71399999 -0.028793238 2.221915e-38 341 263
-0.038590867 0.70999998 -0.029876797 2.2956715e-38 289 264
-0.037345998 0.70999998 -0.029876797 1.9542602e-38 290 264
-0.03599944 0.708 -0.02979264 1.6131364e-38 291 264
-0.034758076 0.708 -0.02979264 1.6306402e-38 292 264
-0.033469379 0.70700002 -0.029750559 1.4185902e-38 293 264
-0.032184184 0.70599997 -0.029708479 1.4824081e-38 294 264
-0.030946331 0.70599997 -0.029708479 1.5469451e-38 295 264
-0.029624319 0.704 -0.029624319 1.5748206e-38 296 264
-0.028349647 0.70300001 -0.029582238 1.6854553e-38 297 264
-0.027039904 0.70099998 -0.029498078 1.6768827e-38 298 264
-0.025773998 0.69999999 -0.029455997 1.6676273e-38 299 264
-0.024476532 0.69800001 -0.029371841 1.7223319e-38 300 264
-0.023252707 0.69800001 -0.029371841 1.3996472e-38 301 264
-0.02199732 0.69700003 -0.02932976 1.4059519e-38 302 264
-0.020775247 0.69700003 -0.02932976 1.1754988e-38 303 264
-0.019581227 0.69800001 -0.029371841 1.4541383e-38 304 264
-0.018331099 0.69700003 -0.02932976 1.9335556e-38 305 264
-0.017084479 0.69599998 -0.029287677 1.6232952e-38 306 264
-0.015864158 0.69599998 -0.029287677 1.5956366e-38 307 264
-0.01460176 0.69400001 -0.029203519 1.4575959e-38 308 264
-0.013384946 0.69400001 -0.029203519 1.3653643e-38 309 264
-0.012168133 0.69400001 -0.029203519 1.3191225e-38 310 264
-0.01095132 0.69400001 -0.029203519 1.3006475e-38 311 264
-0.0097345067 0.69400001 -0.029203519 1.2823166e-38 312 264
-0.0085176928 0.69400001 -0.029203519 1.2915362e-38 313 264
-0.0073008798 0.69400001 -0.029203519 1.3098677e-38 314 264
-0.0060840664 0.69400001 -0.029203519 1.3006122e-38 315 264
-0.0048672534 0.69400001 -0.029203519 1.2913925e-38 316 264
-0.0036504399 0.69400001 -0.029203519 1.3098677e-38 317 264
-0.00243012 0.69300002 -0.029161438 1.3648964e-38 318 264
-0.00121506 0.69300002 -0.029161438 1.2358225e-38 319 264
0 0.69400001 -0.029203519 1.060759e-38 320 264
0.0012168133 0.69400001 -0.029203519 1.060759e-38 321 264
0.0024336267 0.69400001 -0.029203519 1.0426092e-38 322 264
0.0036504399 0.69400001 -0.029203519 9.9654742e-39 323 264
0.0048672534 0.69400001 -0.029203519 9.7832437e-39 324 264
0.0061015999 0.69599998 -0.029287677 1.0520809e-38 325 264
0.0073219193 0.69599998 -0.029287677 1.1166528e-38 326 264
0.0085545136 0.69700003 -0.02932976 1.153531e-38 327 264
0.0097765867 0.69700003 -0.02932976 1.2268906e-38 328 264
0.01101444 0.69800001 -0.029371841 1.2268906e-38 329 264
0.012238266 0.69800001 -0.029371841 1.2544401e-38 330 264
0.013500666 0.69999999 -0.029455997 1.2544401e-38 331 264
0.014749039 0.70099998 -0.029498078 1.2268528e-38 332 264
0.016023712 0.70300001 -0.029582238 1.2268528e-38 333 264
0.017280852 0.704 -0.029624319 1.2359289e-38 334 264
0.018515198 0.704 -0.029624319 1.2359289e-38 335 264
0.019805651 0.70599997 -0.029708479 1.2544036e-38 336 264
0.021073313 0.70700002 -0.029750559 1.2544036e-38 337 264
0.022407599 0.70999998 -0.029876797 1.3280506e-38 338 264
0.023652466 0.70999998 -0.029876797 1.8351265e-38 339 264
0.025037598 0.71399999 -0.030045118 2.1390834e-38 340 264
0.026289478 0.71399999 -0.030045118 2.2036203e-38 341 264
-0.040172372 0.71600002 -0.031384666 2.2496457e-38 288 265
-0.038645219 0.71100003 -0.031165501 2.2865238e-38 289 265
-0.037398599 0.71100003 -0.031165501 1.9265657e-38 290 265
-0.036101133 0.70999998 -0.031121666 1.557819e-38 291 265
-0.034758076 0.708 -0.031034 1.6308922e-38 292 265
-0.033516716 0.708 -0.031034 1.4925987e-38 293 265
-0.032229774 0.70700002 -0.030990168 1.4915911e-38 294 265
-0.030946331 0.70599997 -0.030946331 1.4086149e-38 295 265
-0.029708479 0.70599997 -0.030946331 1.4724333e-38 296 265
-0.028389972 0.704 -0.030858666 1.6107267e-38 297 265
-0.027117053 0.70300001 -0.030814834 1.5290457e-38 298 265
-0.025810819 0.70099998 -0.030727165 1.6581196e-38 299 265
-0.024546666 0.69999999 -0.030683333 1.667483e-38 300 265
-0.023252707 0.69800001 -0.030595668 1.4646526e-38 301 265
-0.02202888 0.69800001 -0.030595668 1.4154238e-38 302 265
-0.020805053 0.69800001 -0.030595668 1.1296534e-38 303 265
-0.019581227 0.69800001 -0.030595668 1.45421e-38 304 265
-0.018331099 0.69700003 -0.030551834 1.9151881e-38 305 265
-0.017109027 0.69700003 -0.030551834 1.6140757e-38 306 265
-0.015886955 0.69700003 -0.030551834 1.6048561e-38 307 265
-0.014643839 0.69599998 -0.030507999 1.4668876e-38 308 265
-0.013423519 0.69599998 -0.030507999 1.3285583e-38 309 265
-0.012168133 0.69400001 -0.030420333 1.217996e-38 310 265
-0.01095132 0.69400001 -0.030420333 1.2272156e-38 311 265
-0.0097345067 0.69400001 -0.030420333 1.2913928e-38 312 265
-0.0085176928 0.69400001 -0.030420333 1.2913928e-38 313 265
-0.0073008798 0.69400001 -0.030420333 1.2822813e-38 314 265
-0.0060840664 0.69400001 -0.030420333 1.2822813e-38 315 265
-0.0048672534 0.69400001 -0.030420333 1.2913209e-38 316 265
-0.0036504399 0.69400001 -0.030420333 1.3005405e-38 317 265
-0.0024336267 0.69400001 -0.030420333 1.3372017e-38 318 265
-0.0012168133 0.69400001 -0.030420333 1.3003594e-38 319 265
0 0.69400001 -0.030420333 1.2539735e-38 320 265
0.0012203199 0.69599998 -0.030507999 1.2816682e-38 321 265
0.0024406398 0.69599998 -0.030507999 1.2909244e-38 322 265
0.0036609597 0.69599998 -0.030507999 1.17107e-38 323 265
0.0048812795 0.69599998 -0.030507999 1.0976379e-38 324 265
0.0061015999 0.69599998 -0.030507999 1.2635901e-38 325 265
0.00733244 0.69700003 -0.030551834 1.1719339e-38 326 265
0.0085545136 0.69700003 -0.030551834 1.1442392e-38 327 265
0.0097765867 0.69700003 -0.030551834 1.2175276e-38 328 265
0.01101444 0.69800001 -0.030595668 1.2451502e-38 329 265
0.012238266 0.69800001 -0.030595668 1.2543685e-38 330 265
0.013519952 0.70099998 -0.030727165 1.2635881e-38 331 265
0.014791119 0.70300001 -0.030814834 1.2361445e-38 332 265
0.016046507 0.704 -0.030858666 1.2453642e-38 333 265
0.017280852 0.704 -0.030858666 1.2819546e-38 334 265
0.018567799 0.70599997 -0.030946331 1.2819546e-38 335 265
0.019833706 0.70700002 -0.030990168 1.2544036e-38 336 265
0.021073313 0.70700002 -0.030990168 1.3005014e-38 337 265
0.022407599 0.70999998 -0.031121666 1.4109191e-38 338 265
0.023685781 0.71100003 -0.031165501 1.8257994e-38 339 265
0.025037598 0.71399999 -0.031296998 2.1574146e-38 340 265
-0.040172372 0.71600002 -0.032640055 2.2680125e-38 288 266
-0.038808275 0.71399999 -0.032548878 2.2772321e-38 289 266
-0.037398599 0.71100003 -0.032412119 1.8622441e-38 290 266
-0.036101133 0.70999998 -0.032366529 1.484242e-38 291 266
-0.034758076 0.708 -0.03227536 1.5852629e-38 292 266
-0.033516716 0.708 -0.03227536 1.5207259e-38 293 266
-0.03227536 0.708 -0.03227536 1.4644359e-38 294 266
-0.030990168 0.70700002 -0.032229774 1.2892642e-38 295 266
-0.029708479 0.70599997 -0.032184184 1.3335245e-38 296 266
-0.028389972 0.704 -0.032093015 1.3335245e-38 297 266
-0.027117053 0.70300001 -0.032047424 1.3985664e-38 298 266
-0.025810819 0.70099998 -0.031956252 1.6844087e-38 299 266
-0.024546666 0.69999999 -0.031910665 1.6944949e-38 300 266
-0.023252707 0.69800001 -0.031819493 1.5008841e-38 301 266
-0.02202888 0.69800001 -0.031819493 1.4615223e-38 302 266
-0.020805053 0.69800001 -0.031819493 1.1664603e-38 303 266
-0.019581227 0.69800001 -0.031819493 1.45421e-38 304 266
-0.0183574 0.69800001 -0.031819493 1.9151881e-38 305 266
-0.017133573 0.69800001 -0.031819493 1.6232955e-38 306 266
-0.015886955 0.69700003 -0.03177391 1.614076e-38 307 266
-0.01466488 0.69700003 -0.03177391 1.4760716e-38 308 266
-0.013423519 0.69599998 -0.031728316 1.3285586e-38 309 266
-0.0122032 0.69599998 -0.031728316 1.1444197e-38 310 266
-0.010982879 0.69599998 -0.031728316 1.1351643e-38 311 266
-0.0097345067 0.69400001 -0.031637147 1.2177806e-38 312 266
-0.0085176928 0.69400001 -0.031637147 1.2454752e-38 313 266
-0.0073008798 0.69400001 -0.031637147 1.2455105e-38 314 266
-0.0061015999 0.69599998 -0.031728316 1.2085964e-38 315 266
-0.0048812795 0.69599998 -0.031728316 1.1994847e-38 316 266
-0.0036504399 0.69400001 -0.031637147 1.2824608e-38 317 266
-0.0024336267 0.69400001 -0.031637147 1.3466017e-38 318 266
-0.0012203199 0.69599998 -0.031728316 1.383444e-38 319 266
0 0.69700003 -0.03177391 1.3741157e-38 320 266
0.0012220733 0.69700003 -0.03177391 1.3741157e-38 321 266
0.0024406398 0.69599998 -0.031728316 1.2912112e-38 322 266
0.0036609597 0.69599998 -0.031728316 1.1345145e-38 323 266
0.0048812795 0.69599998 -0.031728316 1.0701943e-38 324 266
0.0061103669 0.69700003 -0.03177391 1.2361106e-38 325 266
0.00733244 0.69700003 -0.03177391 1.2913928e-38 326 266
0.0085545136 0.69700003 -0.03177391 1.1899778e-38 327 266
0.0097906133 0.69800001 -0.031819493 1.1808657e-38 328 266
0.01101444 0.69800001 -0.031819493 1.1900852e-38 329 266
0.012273333 0.69999999 -0.031910665 1.2085231e-38 330 266
0.013558527 0.70300001 -0.032047424 1.2269262e-38 331 266
0.014812159 0.704 -0.032093015 1.2361812e-38 332 266
0.016092092 0.70599997 -0.032184184 1.2361812e-38 333 266
0.017329946 0.70599997 -0.032184184 1.2454361e-38 334 266
0.018594101 0.70700002 -0.032229774 1.2362165e-38 335 266
0.01986176 0.708 -0.03227536 1.3186891e-38 336 266
0.021103119 0.708 -0.03227536 1.3832261e-38 337 266
0.022407599 0.70999998 -0.032366529 1.4385783e-38 338 266
0.023752406 0.713 -0.032503292 1.8165445e-38 339 266
0.025037598 0.71399999 -0.032548878 2.1481231e-38 340 266
-0.040060159 0.71399999 -0.033800758 2.2864519e-38 288 267
-0.038808275 0.71399999 -0.033800758 2.304891e-38 289 267
-0.037503798 0.713 -0.033753417 1.8348376e-38 290 267
-0.036151983 0.71100003 -0.033658739 1.5121529e-38 291 267
-0.034856264 0.70999998 -0.033611398 1.6596305e-38 292 267
-0.033611398 0.70999998 -0.033611398 1.4752392e-38 293 267
-0.03227536 0.708 -0.033516716 1.2987009e-38 294 267
-0.030990168 0.70700002 -0.033469379 1.252603e-38 295 267
-0.029708479 0.70599997 -0.033422034 1.3618689e-38 296 267
-0.028389972 0.704 -0.03332736 1.1590385e-38 297 267
-0.027117053 0.70300001 -0.033280019 1.3328059e-38 298 267
-0.025884461 0.70300001 -0.033280019 1.3512091e-38 299 267
-0.024581732 0.70099998 -0.03318534 1.4066712e-38 300 267
-0.023252707 0.69800001 -0.033043321 1.452805e-38 301 267
-0.02202888 0.69800001 -0.033043321 1.4337538e-38 302 267
-0.020805053 0.69800001 -0.033043321 1.2678017e-38 303 267
-0.019581227 0.69800001 -0.033043321 1.4634651e-38 304 267
-0.0183574 0.69800001 -0.033043321 1.9244433e-38 305 267
-0.017133573 0.69800001 -0.033043321 1.6325151e-38 306 267
-0.015909746 0.69800001 -0.033043321 1.6048564e-38 307 267
-0.01466488 0.69700003 -0.03299598 1.4669595e-38 308 267
-0.013442807 0.69700003 -0.03299598 1.3286302e-38 309 267
-0.0122032 0.69599998 -0.032948639 1.144456e-38 310 267
-0.010982879 0.69599998 -0.032948639 1.0891386e-38 311 267
-0.0097625591 0.69599998 -0.032948639 1.2086695e-38 312 267
-0.0085422397 0.69599998 -0.032948639 1.2455119e-38 313 267
-0.0073219193 0.69599998 -0.032948639 1.2179244e-38 314 267
-0.0061015999 0.69599998 -0.032948639 1.1256929e-38 315 267
-0.0048812795 0.69599998 -0.032948639 1.1443841e-38 316 267
-0.0036609597 0.69599998 -0.032948639 1.2181406e-38 317 267
-0.0024406398 0.69599998 -0.032948639 1.3096521e-38 318 267
-0.0012220733 0.69700003 -0.03299598 1.3188717e-38 319 267
0 0.69700003 -0.03299598 1.273025e-38 320 267
0.0012220733 0.69700003 -0.03299598 1.2914281e-38 321 267
0.0024441467 0.69700003 -0.03299598 1.2455818e-38 322 267
0.00366622 0.69700003 -0.03299598 1.19952e-38 323 267
0.0048882933 0.69700003 -0.03299598 1.1718609e-38 324 267
0.0061103669 0.69700003 -0.03299598 1.1534578e-38 325 267
0.0073429602 0.69800001 -0.033043321 1.1533146e-38 326 267
0.0085667865 0.69800001 -0.033043321 1.1625342e-38 327 267
0.0097906133 0.69800001 -0.033043321 1.1901929e-38 328 267
0.011045999 0.69999999 -0.033137999 1.1809733e-38 329 267
0.012273333 0.69999999 -0.033137999 1.2361459e-38 330 267
0.013558527 0.70300001 -0.033280019 1.2453655e-38 331 267
0.014812159 0.704 -0.03332736 1.2454011e-38 332 267
0.016092092 0.70599997 -0.033422034 1.2269259e-38 333 267
0.017329946 0.70599997 -0.033422034 1.2361456e-38 334 267
0.0186204 0.708 -0.033516716 1.2638402e-38 335 267
0.019917866 0.70999998 -0.033611398 1.3740784e-38 336 267
0.021162732 0.70999998 -0.033611398 1.4109566e-38 337 267
0.022439159 0.71100003 -0.033658739 1.3925879e-38 338 267
0.023752406 0.713 -0.033753417 1.7982486e-38 339 267
0.025037598 0.71399999 -0.033800758 2.1573424e-38 340 267
-0.040060159 0.71399999 -0.035052639 2.2864516e-38 288 268
-0.038808275 0.71399999 -0.035052639 2.3325494e-38 289 268
-0.037503798 0.713 -0.035003547 1.927141e-38 290 268
-0.036151983 0.71100003 -0.034905359 1.6044563e-38 291 268
-0.034856264 0.70999998 -0.034856264 1.7148037e-38 292 268
-0.033611398 0.70999998 -0.034856264 1.5857298e-38 293 268
-0.03227536 0.708 -0.034758076 1.3361918e-38 294 268
-0.030990168 0.70700002 -0.034708988 1.3177886e-38 295 268
-0.029750559 0.70700002 -0.034708988 1.4282429e-38 296 268
-0.028389972 0.704 -0.034561705 1.2623268e-38 297 268
-0.027117053 0.70300001 -0.034512613 1.2150744e-38 298 268
-0.025810819 0.70099998 -0.034414422 1.0675256e-38 299 268
-0.024581732 0.70099998 -0.034414422 1.2774856e-38 300 268
-0.023319334 0.69999999 -0.034365334 1.2682661e-38 301 268
-0.02202888 0.69800001 -0.034267146 1.3505944e-38 302 268
-0.020805053 0.69800001 -0.034267146 1.2860575e-38 303 268
-0.019637333 0.69999999 -0.034365334 1.435914e-38 304 268
-0.0183574 0.69800001 -0.034267146 1.8876726e-38 305 268
-0.017133573 0.69800001 -0.034267146 1.6417704e-38 306 268
-0.015909746 0.69800001 -0.034267146 1.6232952e-38 307 268
-0.01468592 0.69800001 -0.034267146 1.4576322e-38 308 268
-0.013442807 0.69700003 -0.034218054 1.3470333e-38 309 268
-0.012220734 0.69700003 -0.034218054 1.1812622e-38 310 268
-0.01099866 0.69700003 -0.034218054 1.1259449e-38 311 268
-0.0097625591 0.69599998 -0.034168959 1.1719352e-38 312 268
-0.0085422397 0.69599998 -0.034168959 1.1996298e-38 313 268
-0.00733244 0.69700003 -0.034218054 1.2179963e-38 314 268
-0.0061103669 0.69700003 -0.034218054 1.1995213e-38 315 268
-0.0048953067 0.69800001 -0.034267146 1.1718633e-38 316 268
-0.0036714801 0.69800001 -0.034267146 1.1626437e-38 317 268
-0.0024476533 0.69800001 -0.034267146 1.1811548e-38 318 268
-0.0012238267 0.69800001 -0.034267146 1.1996298e-38 319 268
0 0.69800001 -0.034267146 1.2637698e-38 320 268
0.0012238267 0.69800001 -0.034267146 1.2729894e-38 321 268
0.0024441467 0.69700003 -0.034218054 1.2548374e-38 322 268
0.00366622 0.69700003 -0.034218054 1.2363623e-38 323 268
0.0048882933 0.69700003 -0.034218054 1.2085961e-38 324 268
0.006119133 0.69800001 -0.034267146 1.1533146e-38 325 268
0.0073429602 0.69800001 -0.034267146 1.1715383e-38 326 268
0.0085667865 0.69800001 -0.034267146 1.2360753e-38 327 268
0.0098186666 0.69999999 -0.034365334 1.2545856e-38 328 268
0.011045999 0.69999999 -0.034365334 1.1992682e-38 329 268
0.012325933 0.70300001 -0.034512613 1.2084875e-38 330 268
0.013577812 0.704 -0.034561705 1.2268906e-38 331 268
0.014812159 0.704 -0.034561705 1.2360736e-38 332 268
0.016092092 0.70599997 -0.034659892 1.2453292e-38 333 268
0.017354494 0.70700002 -0.034708988 1.328125e-38 334 268
0.0186204 0.708 -0.034758076 1.3465283e-38 335 268
0.01994592 0.71100003 -0.034905359 1.3466715e-38 336 268
0.021192541 0.71100003 -0.034905359 1.3282324e-38 337 268
0.022439159 0.71100003 -0.034905359 1.3465619e-38 338 268
0.023752406 0.713 -0.035003547 1.7614783e-38 339 268
0.025037598 0.71399999 -0.035052639 2.1481226e-38 340 268
-0.040172372 0.71600002 -0.036406212 2.2864516e-38 288 269
-0.038808275 0.71399999 -0.036304519 2.3048907e-38 289 269
-0.037556399 0.71399999 -0.036304519 2.0191935e-38 290 269
-0.036253672 0.713 -0.036253672 1.7703013e-38 291 269
-0.034905359 0.71100003 -0.036151983 1.7424994e-38 292 269
-0.033611398 0.70999998 -0.036101133 1.6687429e-38 293 269
-0.03227536 0.708 -0.03599944 1.4936433e-38 294 269
-0.031034 0.708 -0.03599944 1.5950585e-38 295 269
-0.029750559 0.70700002 -0.035948593 1.6321538e-38 296 269
-0.028389972 0.704 -0.035796054 1.5583973e-38 297 269
-0.027117053 0.70300001 -0.035745207 1.4659493e-38 298 269
-0.025810819 0.70099998 -0.035643511 1.346095e-38 299 269
-0.024581732 0.70099998 -0.035643511 1.4273759e-38 300 269
-0.023319334 0.69999999 -0.035592664 1.0585934e-38 301 269
-0.022091998 0.69999999 -0.035592664 1.1946893e-38 302 269
-0.020864666 0.69999999 -0.035592664 1.0563959e-38 303 269
-0.019637333 0.69999999 -0.035592664 1.3164187e-38 304 269
-0.018409999 0.69999999 -0.035592664 1.8050914e-38 305 269
-0.017133573 0.69800001 -0.035490975 1.6601016e-38 306 269
-0.015909746 0.69800001 -0.035490975 1.6508819e-38 307 269
-0.01468592 0.69800001 -0.035490975 1.4576328e-38 308 269
-0.013462093 0.69800001 -0.035490975 1.3654011e-38 309 269
-0.012238266 0.69800001 -0.035490975 1.2088858e-38 310 269
-0.01099866 0.69700003 -0.035440128 1.1443488e-38 311 269
-0.0097765867 0.69700003 -0.035440128 1.1535687e-38 312 269
-0.0085545136 0.69700003 -0.035440128 1.1904468e-38 313 269
-0.0073429602 0.69800001 -0.035490975 1.2273602e-38 314 269
-0.006119133 0.69800001 -0.035490975 1.2181406e-38 315 269
-0.0048953067 0.69800001 -0.035490975 1.2087411e-38 316 269
-0.0036714801 0.69800001 -0.035490975 1.1626435e-38 317 269
-0.0024476533 0.69800001 -0.035490975 1.1170853e-38 318 269
-0.0012238267 0.69800001 -0.035490975 1.1447081e-38 319 269
0 0.69800001 -0.035490975 1.2455471e-38 320 269
0.0012238267 0.69800001 -0.035490975 1.2455471e-38 321 269
0.0024476533 0.69800001 -0.035490975 1.254874e-38 322 269
0.0036714801 0.69800001 -0.035490975 1.2272512e-38 323 269
0.0048953067 0.69800001 -0.035490975 1.1994844e-38 324 269
0.006119133 0.69800001 -0.035490975 1.1718256e-38 325 269
0.0073639993 0.69999999 -0.035592664 1.1810086e-38 326 269
0.0085913334 0.69999999 -0.035592664 1.2271064e-38 327 269
0.0098326923 0.70099998 -0.035643511 1.2361462e-38 328 269
0.011061779 0.70099998 -0.035643511 1.1808288e-38 329 269
0.012325933 0.70300001 -0.035745207 1.2175992e-38 330 269
0.013577812 0.704 -0.035796054 1.2360742e-38 331 269
0.014854239 0.70599997 -0.035897743 1.2636604e-38 332 269
0.016114887 0.70700002 -0.035948593 1.3097222e-38 333 269
0.017379038 0.708 -0.03599944 1.4109566e-38 334 269
0.018672999 0.70999998 -0.036101133 1.3925175e-38 335 269
0.01994592 0.71100003 -0.036151983 1.2821699e-38 336 269
0.021192541 0.71100003 -0.036151983 1.2268525e-38 337 269
0.022439159 0.71100003 -0.036151983 1.3096114e-38 338 269
0.02378572 0.71399999 -0.036304519 1.7982483e-38 339 269
0.025037598 0.71399999 -0.036304519 2.1665976e-38 340 269
0.026289478 0.71399999 -0.036304519 2.20344e-38 341 269
-0.040172372 0.71600002 -0.037661601 2.2679769e-38 288 270
-0.038808275 0.71399999 -0.037556399 2.2956715e-38 289 270
-0.037556399 0.71399999 -0.037556399 2.056072e-38 290 270
-0.036253672 0.713 -0.037503798 1.8163633e-38 291 270
-0.034905359 0.71100003 -0.037398599 1.6782867e-38 292 270
-0.033611398 0.70999998 -0.037345998 1.6229693e-38 293 270
-0.03227536 0.708 -0.0372408 1.4848201e-38 294 270
-0.031034 0.708 -0.0372408 1.5309179e-38 295 270
-0.029750559 0.70700002 -0.037188202 1.5310993e-38 296 270
-0.028470624 0.70599997 -0.037135597 1.4389397e-38 297 270
-0.027117053 0.70300001 -0.036977798 1.3743675e-38 298 270
-0.025810819 0.70099998 -0.036872596 1.4757825e-38 299 270
-0.024581732 0.70099998 -0.036872596 1.5766198e-38 300 270
-0.023319334 0.69999999 -0.036819998 1.4106317e-38 301 270
-0.022091998 0.69999999 -0.036819998 1.3171021e-38 302 270
-0.020864666 0.69999999 -0.036819998 1.0774294e-38 303 270
-0.019637333 0.69999999 -0.036819998 1.1613425e-38 304 270
-0.018409999 0.69999999 -0.036819998 1.5024663e-38 305 270
-0.017133573 0.69800001 -0.0367148 1.6508819e-38 306 270
-0.015909746 0.69800001 -0.0367148 1.6508819e-38 307 270
-0.01468592 0.69800001 -0.0367148 1.4944031e-38 308 270
-0.013462093 0.69800001 -0.0367148 1.3561097e-38 309 270
-0.012238266 0.69800001 -0.0367148 1.1721153e-38 310 270
-0.01099866 0.69700003 -0.036662199 1.181335e-38 311 270
-0.0097765867 0.69700003 -0.036662199 1.1998816e-38 312 270
-0.0085545136 0.69700003 -0.036662199 1.190662e-38 313 270
-0.0073429602 0.69800001 -0.0367148 1.2548387e-38 314 270
-0.006119133 0.69800001 -0.0367148 1.2179963e-38 315 270
-0.0048953067 0.69800001 -0.0367148 1.1812622e-38 316 270
-0.0036714801 0.69800001 -0.0367148 1.1904818e-38 317 270
-0.0024476533 0.69800001 -0.0367148 1.1721506e-38 318 270
-0.0012238267 0.69800001 -0.0367148 1.1721506e-38 319 270
0 0.69800001 -0.0367148 1.2087409e-38 320 270
0.0012238267 0.69800001 -0.0367148 1.2087409e-38 321 270
0.0024476533 0.69800001 -0.0367148 1.2454752e-38 322 270
0.0036714801 0.69800001 -0.0367148 1.2362556e-38 323 270
0.0048953067 0.69800001 -0.0367148 1.199485e-38 324 270
0.0061366665 0.69999999 -0.036819998 1.1902654e-38 325 270
0.0073639993 0.69999999 -0.036819998 1.1719334e-38 326 270
0.0085913334 0.69999999 -0.036819998 1.1995919e-38 327 270
0.0098326923 0.70099998 -0.036872596 1.254585e-38 328 270
0.01109334 0.70300001 -0.036977798 1.2269262e-38 329 270
0.012343466 0.704 -0.037030395 1.2268543e-38 330 270
0.013616386 0.70599997 -0.037135597 1.2084152e-38 331 270
0.014854239 0.70599997 -0.037135597 1.2173829e-38 332 270
0.016114887 0.70700002 -0.037188202 1.2266026e-38 333 270
0.017379038 0.708 -0.0372408 1.3372001e-38 334 270
0.018672999 0.70999998 -0.037345998 1.3279806e-38 335 270
0.01994592 0.71100003 -0.037398599 1.2726982e-38 336 270
0.021192541 0.71100003 -0.037398599 1.2634787e-38 337 270
0.022502279 0.713 -0.037503798 1.3371623e-38 338 270
0.02378572 0.71399999 -0.037556399 1.8811524e-38 339 270
0.025107734 0.71600002 -0.037661601 2.2125876e-38 340 270
0.026363119 0.71600002 -0.037661601 2.2402462e-38 341 270
-0.038808275 0.71399999 -0.038808275 2.3232223e-38 289 271
-0.037556399 0.71399999 -0.038808275 2.019266e-38 290 271
-0.036253672 0.713 -0.038753927 1.7334596e-38 291 271
-0.034905359 0.71100003 -0.038645219 1.6323688e-38 292 271
-0.033611398 0.70999998 -0.038590867 1.6139295e-38 293 271
-0.03227536 0.708 -0.038482159 1.4756358e-38 294 271
-0.031034 0.708 -0.038482159 1.4387936e-38 295 271
-0.029750559 0.70700002 -0.038427804 1.4665261e-38 296 271
-0.028470624 0.70599997 -0.038373452 1.4388314e-38 297 271
-0.027155625 0.704 -0.038264744 1.3468179e-38 298 271
-0.025884461 0.70300001 -0.038210396 1.4943668e-38 299 271
-0.024651866 0.70300001 -0.038210396 1.6694659e-38 300 271
-0.023352645 0.70099998 -0.038101684 1.6970887e-38 301 271
-0.022091998 0.69999999 -0.038047329 1.6504498e-38 302 271
-0.020864666 0.69999999 -0.038047329 1.392302e-38 303 271
-0.019637333 0.69999999 -0.038047329 1.2361092e-38 304 271
-0.018409999 0.69999999 -0.038047329 1.3559635e-38 305 271
-0.017182667 0.69999999 -0.038047329 1.5865612e-38 306 271
-0.015955333 0.69999999 -0.038047329 1.6050362e-38 307 271
-0.01468592 0.69800001 -0.037938625 1.5128778e-38 308 271
-0.013462093 0.69800001 -0.037938625 1.3468898e-38 309 271
-0.012238266 0.69800001 -0.037938625 1.153604e-38 310 271
-0.01101444 0.69800001 -0.037938625 1.2089213e-38 311 271
-0.0097906133 0.69800001 -0.037938625 1.2641664e-38 312 271
-0.0085667865 0.69800001 -0.037938625 1.2364719e-38 313 271
-0.0073429602 0.69800001 -0.037938625 1.1534958e-38 314 271
-0.006119133 0.69800001 -0.037938625 1.1627153e-38 315 271
-0.0048953067 0.69800001 -0.037938625 1.1902301e-38 316 271
-0.0036714801 0.69800001 -0.037938625 1.2086693e-38 317 271
-0.0024476533 0.69800001 -0.037938625 1.2363275e-38 318 271
-0.0012238267 0.69800001 -0.037938625 1.208669e-38 319 271
0 0.69800001 -0.037938625 1.2269642e-38 320 271
0.0012238267 0.69800001 -0.037938625 1.2361837e-38 321 271
0.0024476533 0.69800001 -0.037938625 1.254515e-38 322 271
0.0036714801 0.69800001 -0.037938625 1.254515e-38 323 271
0.0048953067 0.69800001 -0.037938625 1.1628588e-38 324 271
0.0061366665 0.69999999 -0.038047329 1.1997011e-38 325 271
0.0073639993 0.69999999 -0.038047329 1.2914281e-38 326 271
0.0085913334 0.69999999 -0.038047329 1.2914281e-38 327 271
0.0098326923 0.70099998 -0.038101684 1.2731684e-38 328 271
0.01109334 0.70300001 -0.038210396 1.1902282e-38 329 271
0.012343466 0.704 -0.038264744 1.1715367e-38 330 271
0.013616386 0.70599997 -0.038373452 1.143878e-38 331 271
0.01487528 0.70700002 -0.038427804 1.1711404e-38 332 271
0.01613768 0.708 -0.038482159 1.1803599e-38 333 271
0.017428132 0.70999998 -0.038590867 1.2634799e-38 334 271
0.0186993 0.71100003 -0.038645219 1.2819549e-38 335 271
