# .PCD v.7 - Point Cloud Data file format
FIELDS x y z rgb imX imY
SIZE 4 4 4 4 4 4
TYPE F F F F F F
COUNT 1 1 1 1 1 1
WIDTH 834
HEIGHT 1
VIEWPOINT 0 0 0 1 0 0 0
POINTS 834
DATA ascii
0.017329946 0.70599997 -0.030946331 1.2268543e-38 334 265
0.018567799 0.70599997 -0.030946331 1.2360739e-38 335 265
0.019833706 0.70700002 -0.030990168 1.263732e-38 336 265
0.021073313 0.70700002 -0.030990168 1.2729516e-38 337 265
0.022407599 0.70999998 -0.031121666 1.318796e-38 338 265
0.023652466 0.70999998 -0.031121666 1.6507003e-38 339 265
0.024932399 0.71100003 -0.031165501 1.982171e-38 340 265
0.026179021 0.71100003 -0.031165501 2.2403188e-38 341 265
-0.038645219 0.71100003 -0.032412119 2.2956715e-38 289 266
-0.037398599 0.71100003 -0.032412119 2.2311711e-38 290 266
-0.036101133 0.70999998 -0.032366529 2.0375603e-38 291 266
-0.034758076 0.708 -0.03227536 1.3361549e-38 292 266
-0.033516716 0.708 -0.03227536 1.3084961e-38 293 266
-0.03227536 0.708 -0.03227536 1.6954658e-38 294 266
-0.031034 0.708 -0.03227536 1.6125257e-38 295 266
-0.029750559 0.70700002 -0.032229774 1.4270539e-38 296 266
-0.028470624 0.70599997 -0.032184184 1.1873451e-38 297 266
-0.027155625 0.704 -0.032093015 1.3799486e-38 298 266
-0.02592128 0.704 -0.032093015 1.499767e-38 299 266
-0.024581732 0.70099998 -0.031956252 1.5098873e-38 300 266
-0.023352645 0.70099998 -0.031956252 1.6850589e-38 301 266
-0.022123558 0.70099998 -0.031956252 1.6764155e-38 302 266
-0.020864666 0.69999999 -0.031910665 1.6856351e-38 303 266
-0.019637333 0.69999999 -0.031910665 1.6673758e-38 304 266
-0.018409999 0.69999999 -0.031910665 1.685815e-38 305 266
-0.017133573 0.69800001 -0.031819493 1.5559128e-38 306 266
-0.015909746 0.69800001 -0.031819493 1.0857151e-38 307 266
-0.01468592 0.69800001 -0.031819493 1.3132535e-38 308 266
-0.013442807 0.69700003 -0.03177391 1.7462502e-38 309 266
-0.0122032 0.69599998 -0.031728316 1.419348e-38 310 266
-0.010982879 0.69599998 -0.031728316 1.7328132e-38 311 266
-0.0097625591 0.69599998 -0.031728316 1.5774868e-38 312 266
-0.0085422397 0.69599998 -0.031728316 1.5590117e-38 313 266
-0.0073219193 0.69599998 -0.031728316 1.3931324e-38 314 266
-0.0061015999 0.69599998 -0.031728316 1.1442042e-38 315 266
-0.0048812795 0.69599998 -0.031728316 1.23622e-38 316 266
-0.0036609597 0.69599998 -0.031728316 1.2085614e-38 317 266
-0.0024406398 0.69599998 -0.031728316 1.1810103e-38 318 266
-0.0012203199 0.69599998 -0.031728316 1.1533875e-38 319 266
0 0.69700003 -0.03177391 1.1624272e-38 320 266
0.0012220733 0.69700003 -0.03177391 1.1532077e-38 321 266
0.0024441467 0.69700003 -0.03177391 1.1900499e-38 322 266
0.00366622 0.69700003 -0.03177391 1.2084892e-38 323 266
0.0048882933 0.69700003 -0.03177391 1.2360756e-38 324 266
0.0061103669 0.69700003 -0.03177391 1.2360756e-38 325 266
0.0073429602 0.69800001 -0.031819493 1.2361835e-38 326 266
0.0085667865 0.69800001 -0.031819493 1.2269639e-38 327 266
0.0097906133 0.69800001 -0.031819493 1.2082727e-38 328 266
0.01101444 0.69800001 -0.031819493 1.1990531e-38 329 266
0.012273333 0.69999999 -0.031910665 1.1991603e-38 330 266
0.013519952 0.70099998 -0.031956252 1.1991603e-38 331 266
0.014812159 0.704 -0.032093015 1.2267827e-38 332 266
0.016092092 0.70599997 -0.032184184 1.2451858e-38 333 266
0.017329946 0.70599997 -0.032184184 1.2085947e-38 334 266
0.018594101 0.70700002 -0.032229774 1.2085947e-38 335 266
0.01986176 0.708 -0.03227536 1.2452936e-38 336 266
0.021103119 0.708 -0.03227536 1.3006108e-38 337 266
0.022407599 0.70999998 -0.032366529 1.3282324e-38 338 266
0.023652466 0.70999998 -0.032366529 1.5955997e-38 339 266
0.024932399 0.71100003 -0.032412119 1.9454725e-38 340 266
0.026179021 0.71100003 -0.032412119 2.2036203e-38 341 266
-0.038645219 0.71100003 -0.033658739 2.2771967e-38 289 267
-0.037398599 0.71100003 -0.033658739 2.1207519e-38 290 267
-0.036151983 0.71100003 -0.033658739 1.9087019e-38 291 267
-0.034856264 0.70999998 -0.033611398 1.1615943e-38 292 267
-0.033611398 0.70999998 -0.033611398 1.0509954e-38 293 267
-0.032366529 0.70999998 -0.033611398 1.5391652e-38 294 267
-0.031034 0.708 -0.033516716 1.5576042e-38 295 267
-0.029750559 0.70700002 -0.033469379 1.5568133e-38 296 267
-0.028470624 0.70599997 -0.033422034 1.436959e-38 297 267
-0.027155625 0.704 -0.03332736 1.5372232e-38 298 267
-0.02592128 0.704 -0.03332736 1.1961353e-38 299 267
-0.024651866 0.70300001 -0.033280019 1.3880179e-38 300 267
-0.023419274 0.70300001 -0.033280019 1.4340797e-38 301 267
-0.022123558 0.70099998 -0.03318534 1.4164675e-38 302 267
-0.020894472 0.70099998 -0.03318534 1.5178467e-38 303 267
-0.019637333 0.69999999 -0.033137999 1.5092758e-38 304 267
-0.018409999 0.69999999 -0.033137999 1.5830323e-38 305 267
-0.017182667 0.69999999 -0.033137999 1.5369699e-38 306 267
-0.015909746 0.69800001 -0.033043321 1.195846e-38 307 267
-0.01468592 0.69800001 -0.033043321 1.3224375e-38 308 267
-0.013462093 0.69800001 -0.033043321 1.7280265e-38 309 267
-0.012220734 0.69700003 -0.03299598 1.4194202e-38 310 267
-0.01099866 0.69700003 -0.03299598 1.7328495e-38 311 267
-0.0097625591 0.69599998 -0.032948639 1.5773792e-38 312 267
-0.0085422397 0.69599998 -0.032948639 1.5497205e-38 313 267
-0.0073219193 0.69599998 -0.032948639 1.4115718e-38 314 267
-0.0061015999 0.69599998 -0.032948639 1.1902664e-38 315 267
-0.0048882933 0.69700003 -0.03299598 1.2086695e-38 316 267
-0.00366622 0.69700003 -0.03299598 1.1901945e-38 317 267
-0.0024441467 0.69700003 -0.03299598 1.190302e-38 318 267
-0.0012238267 0.69800001 -0.033043321 1.190302e-38 319 267
0 0.69800001 -0.033043321 1.2175288e-38 320 267
0.0012238267 0.69800001 -0.033043321 1.2083093e-38 321 267
0.0024441467 0.69700003 -0.03299598 1.1533872e-38 322 267
0.00366622 0.69700003 -0.03299598 1.199485e-38 323 267
0.0048882933 0.69700003 -0.03299598 1.2452951e-38 324 267
0.006119133 0.69800001 -0.033043321 1.2452951e-38 325 267
0.0073429602 0.69800001 -0.033043321 1.1902298e-38 326 267
0.0085667865 0.69800001 -0.033043321 1.1902298e-38 327 267
0.0097906133 0.69800001 -0.033043321 1.2819213e-38 328 267
0.011045999 0.69999999 -0.033137999 1.2358235e-38 329 267
0.012273333 0.69999999 -0.033137999 1.2083799e-38 330 267
0.013558527 0.70300001 -0.033280019 1.2175994e-38 331 267
0.014812159 0.704 -0.03332736 1.1993401e-38 332 267
0.016092092 0.70599997 -0.033422034 1.1901205e-38 333 267
0.017354494 0.70700002 -0.033469379 1.2451855e-38 334 267
0.0186204 0.708 -0.033516716 1.2544051e-38 335 267
0.019917866 0.70999998 -0.033611398 1.2635881e-38 336 267
0.021162732 0.70999998 -0.033611398 1.3189055e-38 337 267
0.022407599 0.70999998 -0.033611398 1.3006812e-38 338 267
0.023652466 0.70999998 -0.033611398 1.5403898e-38 339 267
0.024932399 0.71100003 -0.033658739 1.9269978e-38 340 267
0.026179021 0.71100003 -0.033658739 2.2128043e-38 341 267
-0.037503798 0.713 -0.035003547 2.148338e-38 290 268
-0.036151983 0.71100003 -0.034905359 1.936288e-38 291 268
-0.034905359 0.71100003 -0.034905359 1.1705252e-38 292 268
-0.033611398 0.70999998 -0.034856264 9.9535337e-39 293 268
-0.032366529 0.70999998 -0.034856264 1.5944101e-38 294 268
-0.031034 0.708 -0.034758076 1.622069e-38 295 268
-0.02979264 0.708 -0.034758076 1.5939805e-38 296 268
-0.028470624 0.70599997 -0.034659892 1.3819306e-38 297 268
-0.027155625 0.704 -0.034561705 1.3994709e-38 298 268
-0.02592128 0.704 -0.034561705 1.2611774e-38 299 268
-0.024651866 0.70300001 -0.034512613 1.3517138e-38 300 268
-0.023419274 0.70300001 -0.034512613 1.2594823e-38 301 268
-0.02218668 0.70300001 -0.034512613 1.2684828e-38 302 268
-0.020894472 0.70099998 -0.034414422 1.2777024e-38 303 268
-0.019637333 0.69999999 -0.034365334 1.370045e-38 304 268
-0.018409999 0.69999999 -0.034365334 1.5175582e-38 305 268
-0.017182667 0.69999999 -0.034365334 1.4346915e-38 306 268
-0.015955333 0.69999999 -0.034365334 1.3056177e-38 307 268
-0.014727999 0.69999999 -0.034365334 1.3317297e-38 308 268
-0.013462093 0.69800001 -0.034267146 1.6728176e-38 309 268
-0.012238266 0.69800001 -0.034267146 1.4100934e-38 310 268
-0.01101444 0.69800001 -0.034267146 1.7604368e-38 311 268
-0.0097906133 0.69800001 -0.034267146 1.5866348e-38 312 268
-0.0085667865 0.69800001 -0.034267146 1.5497205e-38 313 268
-0.0073429602 0.69800001 -0.034267146 1.3932406e-38 314 268
-0.006119133 0.69800001 -0.034267146 1.1811548e-38 315 268
-0.0048953067 0.69800001 -0.034267146 1.1994863e-38 316 268
-0.0036714801 0.69800001 -0.034267146 1.1902667e-38 317 268
-0.0024476533 0.69800001 -0.034267146 1.1812266e-38 318 268
-0.0012238267 0.69800001 -0.034267146 1.1904462e-38 319 268
0 0.69800001 -0.034267146 1.2547668e-38 320 268
0.0012238267 0.69800001 -0.034267146 1.2639863e-38 321 268
0.0024476533 0.69800001 -0.034267146 1.2087765e-38 322 268
0.0036714801 0.69800001 -0.034267146 1.1995569e-38 323 268
0.0048953067 0.69800001 -0.034267146 1.2361482e-38 324 268
0.006119133 0.69800001 -0.034267146 1.217709e-38 325 268
0.0073639993 0.69999999 -0.034365334 1.1901934e-38 326 268
0.0085913334 0.69999999 -0.034365334 1.2270358e-38 327 268
0.0098186666 0.69999999 -0.034365334 1.2545856e-38 328 268
0.011045999 0.69999999 -0.034365334 1.2268909e-38 329 268
0.012290866 0.70099998 -0.034414422 1.1993401e-38 330 268
0.013577812 0.704 -0.034561705 1.1993401e-38 331 268
0.014812159 0.704 -0.034561705 1.1901205e-38 332 268
0.016114887 0.70700002 -0.034708988 1.1901205e-38 333 268
0.017354494 0.70700002 -0.034708988 1.1717534e-38 334 268
0.0186204 0.708 -0.034758076 1.1440948e-38 335 268
0.019917866 0.70999998 -0.034856264 1.0612979e-38 336 268
0.021162732 0.70999998 -0.034856264 1.1350903e-38 337 268
0.022407599 0.70999998 -0.034856264 1.2821699e-38 338 268
0.023652466 0.70999998 -0.034856264 1.5679403e-38 339 268
0.024932399 0.71100003 -0.034905359 1.9545123e-38 340 268
0.026179021 0.71100003 -0.034905359 2.2495385e-38 341 268
-0.037503798 0.713 -0.036253672 2.2035835e-38 290 269
-0.036151983 0.71100003 -0.036151983 2.0560346e-38 291 269
-0.034905359 0.71100003 -0.036151983 1.2812669e-38 292 269
-0.033611398 0.70999998 -0.036101133 8.4798329e-39 293 269
-0.032366529 0.70999998 -0.036101133 1.6407222e-38 294 269
-0.031121666 0.70999998 -0.036101133 1.7329539e-38 295 269
-0.02979264 0.708 -0.03599944 1.6405084e-38 296 269
-0.028470624 0.70599997 -0.035897743 1.2993845e-38 297 269
-0.027155625 0.704 -0.035796054 1.1142758e-38 298 269
-0.02592128 0.704 -0.035796054 1.2249106e-38 299 269
-0.024651866 0.70300001 -0.035745207 1.4639362e-38 300 269
-0.023419274 0.70300001 -0.035745207 1.4547167e-38 301 269
-0.02218668 0.70300001 -0.035745207 1.3070935e-38 302 269
-0.020894472 0.70099998 -0.035643511 1.1134827e-38 303 269
-0.019637333 0.69999999 -0.035592664 1.1675406e-38 304 269
-0.018409999 0.69999999 -0.035592664 1.0937841e-38 305 269
-0.017182667 0.69999999 -0.035592664 1.2588734e-38 306 269
-0.015955333 0.69999999 -0.035592664 1.2496537e-38 307 269
-0.014727999 0.69999999 -0.035592664 1.2397858e-38 308 269
-0.013500666 0.69999999 -0.035592664 1.6267204e-38 309 269
-0.012238266 0.69800001 -0.035490975 1.4008739e-38 310 269
-0.01101444 0.69800001 -0.035490975 1.7512173e-38 311 269
-0.0097906133 0.69800001 -0.035490975 1.5774512e-38 312 269
-0.0085667865 0.69800001 -0.035490975 1.5406088e-38 313 269
-0.0073429602 0.69800001 -0.035490975 1.3932406e-38 314 269
-0.0061366665 0.69999999 -0.035592664 1.1996298e-38 315 269
-0.0049093333 0.69999999 -0.035592664 1.217961e-38 316 269
-0.0036714801 0.69800001 -0.035490975 1.1902664e-38 317 269
-0.0024476533 0.69800001 -0.035490975 1.1628951e-38 318 269
-0.0012238267 0.69800001 -0.035490975 1.1721506e-38 319 269
0 0.69800001 -0.035490975 1.1997011e-38 320 269
0.0012238267 0.69800001 -0.035490975 1.1997011e-38 321 269
0.0024476533 0.69800001 -0.035490975 1.1904452e-38 322 269
0.0036714801 0.69800001 -0.035490975 1.1996648e-38 323 269
0.0048953067 0.69800001 -0.035490975 1.1904096e-38 324 269
0.0061366665 0.69999999 -0.035592664 1.1719705e-38 325 269
0.0073639993 0.69999999 -0.035592664 1.199485e-38 326 269
0.0085913334 0.69999999 -0.035592664 1.199485e-38 327 269
0.0098326923 0.70099998 -0.035643511 1.2269636e-38 328 269
0.011061779 0.70099998 -0.035643511 1.1993048e-38 329 269
0.012325933 0.70300001 -0.035745207 1.1993048e-38 330 269
0.013577812 0.704 -0.035796054 1.2085244e-38 331 269
0.014854239 0.70599997 -0.035897743 1.2085597e-38 332 269
0.016114887 0.70700002 -0.035948593 1.2085597e-38 333 269
0.017379038 0.708 -0.03599944 1.1257282e-38 334 269
0.018672999 0.70999998 -0.036101133 9.9665433e-39 335 269
0.019917866 0.70999998 -0.036101133 8.9541865e-39 336 269
0.021162732 0.70999998 -0.036101133 1.0429317e-38 337 269
0.022407599 0.70999998 -0.036101133 1.2912095e-38 338 269
0.023685781 0.71100003 -0.036151983 1.6138942e-38 339 269
0.024932399 0.71100003 -0.036151983 1.9638035e-38 340 269
0.026179021 0.71100003 -0.036151983 2.2403904e-38 341 269
-0.037503798 0.713 -0.037503798 2.240426e-38 290 270
-0.036151983 0.71100003 -0.037398599 2.1297914e-38 291 270
-0.034905359 0.71100003 -0.037398599 1.5767255e-38 292 270
-0.033611398 0.70999998 -0.037345998 1.2079069e-38 293 270
-0.032366529 0.70999998 -0.037345998 1.6228597e-38 294 270
-0.031121666 0.70999998 -0.037345998 1.6966164e-38 295 270
-0.02979264 0.708 -0.0372408 1.6225371e-38 296 270
-0.028510952 0.70700002 -0.037188202 1.4474013e-38 297 270
-0.027155625 0.704 -0.037030395 1.2078747e-38 298 270
-0.02592128 0.704 -0.037030395 1.309254e-38 299 270
-0.024651866 0.70300001 -0.036977798 1.520802e-38 300 270
-0.023419274 0.70300001 -0.036977798 1.520802e-38 301 270
-0.02218668 0.70300001 -0.036977798 1.3645358e-38 302 270
-0.020954086 0.70300001 -0.036977798 1.2262424e-38 303 270
-0.019665385 0.70099998 -0.036872596 1.2257019e-38 304 270
-0.018436298 0.70099998 -0.036872596 1.1058834e-38 305 270
-0.017182667 0.69999999 -0.036819998 1.2704674e-38 306 270
-0.015955333 0.69999999 -0.036819998 1.067637e-38 307 270
-0.014727999 0.69999999 -0.036819998 1.0842408e-38 308 270
-0.013500666 0.69999999 -0.036819998 1.4437679e-38 309 270
-0.012273333 0.69999999 -0.036819998 1.3641395e-38 310 270
-0.011045999 0.69999999 -0.036819998 1.7052634e-38 311 270
-0.0098186666 0.69999999 -0.036819998 1.5406804e-38 312 270
-0.0085913334 0.69999999 -0.036819998 1.5314609e-38 313 270
-0.0073639993 0.69999999 -0.036819998 1.384057e-38 314 270
-0.0061366665 0.69999999 -0.036819998 1.1628235e-38 315 270
-0.0049093333 0.69999999 -0.036819998 1.2272526e-38 316 270
-0.0036819996 0.69999999 -0.036819998 1.218033e-38 317 270
-0.0024546667 0.69999999 -0.036819998 1.1538558e-38 318 270
-0.0012273333 0.69999999 -0.036819998 1.1354165e-38 319 270
0 0.69999999 -0.036819998 1.1627156e-38 320 270
0.0012273333 0.69999999 -0.036819998 1.1350928e-38 321 270
0.0024546667 0.69999999 -0.036819998 1.1441689e-38 322 270
0.0036714801 0.69800001 -0.0367148 1.1441689e-38 323 270
0.0048953067 0.69800001 -0.0367148 1.0893191e-38 324 270
0.0061366665 0.69999999 -0.036819998 1.1169418e-38 325 270
0.0073639993 0.69999999 -0.036819998 1.1995213e-38 326 270
0.0085913334 0.69999999 -0.036819998 1.2087409e-38 327 270
0.0098326923 0.70099998 -0.036872596 1.2360389e-38 328 270
0.01109334 0.70300001 -0.036977798 1.1991247e-38 329 270
0.012325933 0.70300001 -0.036977798 1.2360389e-38 330 270
0.013616386 0.70599997 -0.037135597 1.2175997e-38 331 270
0.014854239 0.70599997 -0.037135597 1.08885e-38 332 270
0.01613768 0.708 -0.0372408 1.0519717e-38 333 270
0.017379038 0.708 -0.0372408 9.6917543e-39 334 270
0.018672999 0.70999998 -0.037345998 9.78395e-39 335 270
0.01994592 0.71100003 -0.037398599 1.162102e-38 336 270
0.021192541 0.71100003 -0.037398599 1.2266389e-38 337 270
0.022439159 0.71100003 -0.037398599 1.3370552e-38 338 270
0.023752406 0.713 -0.037503798 1.6873988e-38 339 270
0.025002534 0.713 -0.037503798 1.9639115e-38 340 270
0.026252659 0.713 -0.037503798 2.2312789e-38 341 270
-0.037398599 0.71100003 -0.038645219 2.2219515e-38 290 271
-0.036151983 0.71100003 -0.038645219 2.1113169e-38 291 271
-0.034905359 0.71100003 -0.038645219 1.7152007e-38 292 271
-0.033658739 0.71100003 -0.038645219 1.5769071e-38 293 271
-0.032366529 0.70999998 -0.038590867 1.5863434e-38 294 271
-0.031121666 0.70999998 -0.038590867 1.5771239e-38 295 271
-0.02979264 0.708 -0.038482159 1.5675819e-38 296 271
-0.028510952 0.70700002 -0.038427804 1.5122646e-38 297 271
-0.027155625 0.704 -0.038264744 1.4297214e-38 298 271
-0.02592128 0.704 -0.038264744 1.4942584e-38 299 271
-0.024686933 0.704 -0.038264744 1.650415e-38 300 271
-0.023419274 0.70300001 -0.038210396 1.6227565e-38 301 271
-0.02218668 0.70300001 -0.038210396 1.4482324e-38 302 271
-0.020983893 0.704 -0.038264744 1.3929509e-38 303 271
-0.019721493 0.70300001 -0.038210396 1.531029e-38 304 271
-0.018488899 0.70300001 -0.038210396 1.5679433e-38 305 271
-0.017207211 0.70099998 -0.038101684 1.5764412e-38 306 271
-0.015978126 0.70099998 -0.038101684 1.3090738e-38 307 271
-0.014727999 0.69999999 -0.038047329 1.0870134e-38 308 271
-0.013500666 0.69999999 -0.038047329 1.096233e-38 309 271
-0.012273333 0.69999999 -0.038047329 1.1896534e-38 310 271
-0.011045999 0.69999999 -0.038047329 1.5492523e-38 311 271
-0.0098186666 0.69999999 -0.038047329 1.5407879e-38 312 271
-0.0085913334 0.69999999 -0.038047329 1.5223489e-38 313 271
-0.0073639993 0.69999999 -0.038047329 1.3933122e-38 314 271
-0.0061366665 0.69999999 -0.038047329 1.1443841e-38 315 271
-0.0049093333 0.69999999 -0.038047329 1.1903749e-38 316 271
-0.0036819996 0.69999999 -0.038047329 1.1995944e-38 317 271
-0.0024546667 0.69999999 -0.038047329 1.1995942e-38 318 271
-0.0012273333 0.69999999 -0.038047329 1.1719355e-38 319 271
0 0.69999999 -0.038047329 1.1441689e-38 320 271
0.0012273333 0.69999999 -0.038047329 1.1349493e-38 321 271
0.0024546667 0.69999999 -0.038047329 1.1441692e-38 322 271
0.0036819996 0.69999999 -0.038047329 1.1533887e-38 323 271
0.0049093333 0.69999999 -0.038047329 1.1443491e-38 324 271
0.0061366665 0.69999999 -0.038047329 1.1535687e-38 325 271
0.0073639993 0.69999999 -0.038047329 1.1811901e-38 326 271
0.0086036054 0.70099998 -0.038101684 1.245727e-38 327 271
0.0098607466 0.70300001 -0.038210396 1.3003945e-38 328 271
0.01109334 0.70300001 -0.038210396 1.2173824e-38 329 271
0.012343466 0.704 -0.038264744 1.1806486e-38 330 271
0.013616386 0.70599997 -0.038373452 1.070014e-38 331 271
0.01487528 0.70700002 -0.038427804 9.2304259e-39 332 271
0.01613768 0.708 -0.038482159 8.6772521e-39 333 271
0.017428132 0.70999998 -0.038590867 9.6906795e-39 334 271
0.0186993 0.71100003 -0.038645219 1.0797026e-38 335 271
0.01994592 0.71100003 -0.038645219 1.2911393e-38 336 271
0.021192541 0.71100003 -0.038645219 1.2819196e-38 337 271
0.022502279 0.713 -0.038753927 1.2635505e-38 338 271
0.023852346 0.71600002 -0.038916986 1.6507722e-38 339 271
0.025107734 0.71600002 -0.038916986 1.9914626e-38 340 271
0.026363119 0.71600002 -0.038916986 2.2588299e-38 341 271
-0.036151983 0.71100003 -0.039891839 1.982243e-38 291 272
-0.034905359 0.71100003 -0.039891839 1.7060174e-38 292 272
-0.033658739 0.71100003 -0.039891839 1.5954185e-38 293 272
-0.032412119 0.71100003 -0.039891839 1.5588289e-38 294 272
-0.031121666 0.70999998 -0.039835732 1.5311344e-38 295 272
-0.029876797 0.70999998 -0.039835732 1.5493943e-38 296 272
-0.02855128 0.708 -0.039723519 1.4387595e-38 297 272
-0.027271347 0.70700002 -0.039667413 1.2551241e-38 298 272
-0.025994917 0.70599997 -0.039611302 1.3288806e-38 299 272
-0.024686933 0.704 -0.039499093 1.5676189e-38 300 272
-0.023452586 0.704 -0.039499093 1.521521e-38 301 272
-0.022218239 0.704 -0.039499093 1.3285952e-38 302 272
-0.020983893 0.704 -0.039499093 1.2732778e-38 303 272
-0.019749546 0.704 -0.039499093 1.4391223e-38 304 272
-0.018515198 0.704 -0.039499093 1.5405735e-38 305 272
-0.017256306 0.70300001 -0.039442986 1.6050007e-38 306 272
-0.015978126 0.70099998 -0.039330769 1.5773419e-38 307 272
-0.014749039 0.70099998 -0.039330769 1.494257e-38 308 272
-0.013500666 0.69999999 -0.039274666 1.4020255e-38 309 272
-0.012273333 0.69999999 -0.039274666 1.4021705e-38 310 272
-0.011045999 0.69999999 -0.039274666 1.5312444e-38 311 272
-0.0098186666 0.69999999 -0.039274666 1.4856507e-38 312 272
-0.0085913334 0.69999999 -0.039274666 1.5040899e-38 313 272
-0.0073639993 0.69999999 -0.039274666 1.4393381e-38 314 272
-0.0061366665 0.69999999 -0.039274666 1.1811903e-38 315 272
-0.0049093333 0.69999999 -0.039274666 1.2271807e-38 316 272
-0.0036819996 0.69999999 -0.039274666 1.2732784e-38 317 272
-0.0024546667 0.69999999 -0.039274666 1.3100121e-38 318 272
-0.0012273333 0.69999999 -0.039274666 1.291573e-38 319 272
0 0.69999999 -0.039274666 1.2915725e-38 320 272
0.0012273333 0.69999999 -0.039274666 1.319267e-38 321 272
0.0024546667 0.69999999 -0.039274666 1.3744046e-38 322 272
0.0036819996 0.69999999 -0.039274666 1.3744046e-38 323 272
0.0049093333 0.69999999 -0.039274666 1.3558949e-38 324 272
0.0061366665 0.69999999 -0.039274666 1.1438808e-38 325 272
0.0073745195 0.70099998 -0.039330769 8.2274199e-39 326 272
0.0086036054 0.70099998 -0.039330769 9.8873013e-39 327 272
0.0098607466 0.70300001 -0.039442986 1.3362663e-38 328 272
0.011109119 0.704 -0.039499093 1.1426555e-38 329 272
0.012343466 0.704 -0.039499093 9.3164908e-39 330 272
0.013616386 0.70599997 -0.039611302 9.9618602e-39 331 272
0.01487528 0.70700002 -0.039667413 1.0612278e-38 332 272
0.01613768 0.708 -0.039723519 1.0981421e-38 333 272
0.017428132 0.70999998 -0.039835732 1.1993401e-38 334 272
0.0186993 0.71100003 -0.039891839 1.162462e-38 335 272
0.020002026 0.713 -0.040004052 1.2634805e-38 336 272
0.021281958 0.71399999 -0.040060159 1.2266024e-38 337 272
0.022596961 0.71600002 -0.040172372 1.0798077e-38 338 272
0.023852346 0.71600002 -0.040172372 1.4670293e-38 339 272
0.025107734 0.71600002 -0.040172372 1.9914632e-38 340 272
0.026363119 0.71600002 -0.040172372 2.2588302e-38 341 272
-0.036253672 0.713 -0.041254178 1.8624606e-38 291 273
-0.035003547 0.713 -0.041254178 1.5124422e-38 292 273
-0.033753417 0.713 -0.041254178 1.5677235e-38 293 273
-0.032503292 0.713 -0.041254178 1.530991e-38 294 273
-0.031165501 0.71100003 -0.041138459 1.5493943e-38 295 273
-0.029876797 0.70999998 -0.041080594 1.5771604e-38 296 273
-0.02855128 0.708 -0.040964879 1.4757454e-38 297 273
-0.027271347 0.70700002 -0.040907022 1.3744004e-38 298 273
-0.025994917 0.70599997 -0.040849157 1.38362e-38 299 273
-0.024757065 0.70599997 -0.040849157 1.4205002e-38 300 273
-0.023452586 0.704 -0.040733438 1.4020611e-38 301 273
-0.022218239 0.704 -0.040733438 1.3835167e-38 302 273
-0.021043506 0.70599997 -0.040849157 1.3650774e-38 303 273
-0.019749546 0.704 -0.040733438 1.3192684e-38 304 273
-0.018515198 0.704 -0.040733438 1.3653661e-38 305 273
-0.017256306 0.70300001 -0.040675577 1.4760369e-38 306 273
-0.016023712 0.70300001 -0.040675577 1.6235139e-38 307 273
-0.014749039 0.70099998 -0.040559858 1.6695029e-38 308 273
-0.013519952 0.70099998 -0.040559858 1.6418082e-38 309 273
-0.012273333 0.69999999 -0.040502001 1.5314609e-38 310 273
-0.011045999 0.69999999 -0.040502001 1.5222413e-38 311 273
-0.0098186666 0.69999999 -0.040502001 1.4671757e-38 312 273
-0.0085913334 0.69999999 -0.040502001 1.5133096e-38 313 273
-0.0073639993 0.69999999 -0.040502001 1.4024966e-38 314 273
-0.0061366665 0.69999999 -0.040502001 1.0245304e-38 315 273
-0.0049093333 0.69999999 -0.040502001 1.0613376e-38 316 273
-0.0036819996 0.69999999 -0.040502001 1.1443138e-38 317 273
-0.0024546667 0.69999999 -0.040502001 1.1903393e-38 318 273
-0.0012273333 0.69999999 -0.040502001 1.153461e-38 319 273
0 0.69999999 -0.040502001 1.2545515e-38 320 273
0.0012273333 0.69999999 -0.040502001 1.2914658e-38 321 273
0.0024546667 0.69999999 -0.040502001 1.1812973e-38 322 273
0.0036819996 0.69999999 -0.040502001 1.2181757e-38 323 273
0.0049093333 0.69999999 -0.040502001 1.2089579e-38 324 273
0.0061454331 0.70099998 -0.040559858 9.6924928e-39 325 273
0.0073745195 0.70099998 -0.040559858 7.1217926e-39 326 273
0.0086281532 0.70300001 -0.040675577 9.3348464e-39 327 273
0.0098747732 0.704 -0.040733438 1.2724128e-38 328 273
0.011109119 0.704 -0.040733438 1.1341192e-38 329 273
0.012378532 0.70599997 -0.040849157 1.0607227e-38 330 273
0.013616386 0.70599997 -0.040849157 1.1528824e-38 331 273
0.01487528 0.70700002 -0.040907022 1.2084875e-38 332 273
0.01613768 0.708 -0.040964879 1.2545853e-38 333 273
0.017428132 0.70999998 -0.041080594 1.1902635e-38 334 273
0.0186993 0.71100003 -0.041138459 1.1718244e-38 335 273
0.020030079 0.71399999 -0.041312039 1.2359294e-38 336 273
0.021281958 0.71399999 -0.041312039 1.245149e-38 337 273
0.022596961 0.71600002 -0.041427758 1.2544038e-38 338 273
0.023852346 0.71600002 -0.041427758 1.6231505e-38 339 273
0.025107734 0.71600002 -0.041427758 1.9638765e-38 340 273
0.026363119 0.71600002 -0.041427758 2.2312437e-38 341 273
-0.036304519 0.71399999 -0.042563915 1.7703013e-38 291 274
-0.035052639 0.71399999 -0.042563915 1.1344048e-38 292 274
-0.033800758 0.71399999 -0.042563915 1.2358198e-38 293 274
-0.032548878 0.71399999 -0.042563915 1.4202132e-38 294 274
-0.031253166 0.713 -0.042504307 1.5031893e-38 295 274
-0.029918881 0.71100003 -0.042385083 1.5677984e-38 296 274
-0.028631933 0.70999998 -0.042325463 1.5862375e-38 297 274
-0.027309919 0.708 -0.042206239 1.6229353e-38 298 274
-0.02603174 0.70700002 -0.042146627 1.503117e-38 299 274
-0.024757065 0.70599997 -0.042087011 1.2915709e-38 300 274
-0.023452586 0.704 -0.041967787 1.2823513e-38 301 274
-0.022218239 0.704 -0.041967787 1.49397e-38 302 274
-0.021043506 0.70599997 -0.042087011 1.5677265e-38 303 274
-0.019749546 0.704 -0.041967787 1.3191235e-38 304 274
-0.018515198 0.704 -0.041967787 1.2269639e-38 305 274
-0.017280852 0.704 -0.041967787 1.2732062e-38 306 274
-0.016023712 0.70300001 -0.041908171 1.4391223e-38 307 274
-0.014791119 0.70300001 -0.041908171 1.5406091e-38 308 274
-0.013519952 0.70099998 -0.041788943 1.5406091e-38 309 274
-0.012290866 0.70099998 -0.041788943 1.5314612e-38 310 274
-0.011061779 0.70099998 -0.041788943 1.5222416e-38 311 274
-0.0098326923 0.70099998 -0.041788943 1.4763956e-38 312 274
-0.0085913334 0.69999999 -0.041729331 1.5133099e-38 313 274
-0.0073639993 0.69999999 -0.041729331 1.3472867e-38 314 274
-0.0061366665 0.69999999 -0.041729331 8.4943027e-39 315 274
-0.0049093333 0.69999999 -0.041729331 8.310657e-39 316 274
-0.0036819996 0.69999999 -0.041729331 5.7291793e-39 317 274
-0.0024546667 0.69999999 -0.041729331 1.2296142e-39 318 274
-0.0012273333 0.69999999 -0.041729331 9.5338742e-40 319 274
0 0.69999999 -0.041729331 4.9945234e-39 320 274
0.0012273333 0.69999999 -0.041729331 5.6398928e-39 321 274
0.0024546667 0.69999999 -0.041729331 4.7240224e-39 322 274
0.0036872597 0.70099998 -0.041788943 7.6746412e-39 323 274
0.0049163462 0.70099998 -0.041788943 1.0252872e-38 324 274
0.0061629666 0.70300001 -0.041908171 7.9479827e-39 325 274
0.0073955595 0.70300001 -0.041908171 8.4996949e-39 326 274
0.0086281532 0.70300001 -0.041908171 1.0620194e-38 327 274
0.0098747732 0.704 -0.041967787 1.3093635e-38 328 274
0.011109119 0.704 -0.041967787 1.2540462e-38 329 274
0.012378532 0.70599997 -0.042087011 1.2358225e-38 330 274
0.013616386 0.70599997 -0.042087011 1.2818843e-38 331 274
0.01487528 0.70700002 -0.042146627 1.263697e-38 332 274
0.016183265 0.70999998 -0.042325463 1.2360742e-38 333 274
0.01745268 0.71100003 -0.042385083 1.1993754e-38 334 274
0.018751899 0.713 -0.042504307 1.19012e-38 335 274
0.020030079 0.71399999 -0.042563915 1.2452209e-38 336 274
0.021341572 0.71600002 -0.042683143 1.2821351e-38 337 274
0.022596961 0.71600002 -0.042683143 1.392301e-38 338 274
0.02388566 0.71700001 -0.042742759 1.7242053e-38 339 274
0.0251428 0.71700001 -0.042742759 1.9546921e-38 340 274
0.02639994 0.71700001 -0.042742759 2.2312791e-38 341 274
-0.036406212 0.71600002 -0.043938532 1.7978518e-38 291 275
-0.035150826 0.71600002 -0.043938532 9.9600413e-39 292 275
-0.03389544 0.71600002 -0.043938532 9.9600413e-39 293 275
-0.032640055 0.71600002 -0.043938532 1.2084881e-38 294 275
-0.031253166 0.713 -0.043754432 1.3651848e-38 295 275
-0.029918881 0.71100003 -0.043631699 1.5767312e-38 296 275
-0.028631933 0.70999998 -0.043570329 1.5859508e-38 297 275
-0.027309919 0.708 -0.043447599 1.5220248e-38 298 275
-0.02603174 0.70700002 -0.043386232 1.4943663e-38 299 275
-0.024792133 0.70700002 -0.043386232 1.3838743e-38 300 275
-0.023519212 0.70599997 -0.043324865 1.3101178e-38 301 275
-0.022281358 0.70599997 -0.043324865 1.5215561e-38 302 275
-0.021043506 0.70599997 -0.043324865 1.5953126e-38 303 275
-0.019805651 0.70599997 -0.043324865 1.3746557e-38 304 275
-0.018515198 0.704 -0.043202132 1.2732765e-38 305 275
-0.017280852 0.704 -0.043202132 1.1998087e-38 306 275
-0.016046507 0.704 -0.043202132 1.3288826e-38 307 275
-0.014791119 0.70300001 -0.043140765 1.5131299e-38 308 275
-0.013558527 0.70300001 -0.043140765 1.5131299e-38 309 275
-0.012325933 0.70300001 -0.043140765 1.5314612e-38 310 275
-0.011061779 0.70099998 -0.043018032 1.5222416e-38 311 275
-0.0098326923 0.70099998 -0.043018032 1.5038745e-38 312 275
-0.0085913334 0.69999999 -0.042956665 1.5591919e-38 313 275
-0.0073639993 0.69999999 -0.042956665 1.4025672e-38 314 275
-0.0061366665 0.69999999 -0.042956665 1.0429682e-38 315 275
-0.0049093333 0.69999999 -0.042956665 1.0428629e-38 316 275
-0.0036819996 0.69999999 -0.042956665 7.8471509e-39 317 275
-0.0024546667 0.69999999 -0.042956665 3.5305491e-39 318 275
-0.0012290865 0.70099998 -0.043018032 3.6227447e-39 319 275
0 0.70099998 -0.043018032 7.9422598e-39 320 275
0.0012290865 0.70099998 -0.043018032 8.7723792e-39 321 275
0.0024651866 0.70300001 -0.043140765 9.0478479e-39 322 275
0.0036977797 0.70300001 -0.043140765 1.0338587e-38 323 275
0.0049303733 0.70300001 -0.043140765 1.1628957e-38 324 275
0.0061717331 0.704 -0.043202132 1.0706642e-38 325 275
0.0074060797 0.704 -0.043202132 9.3269403e-39 326 275
0.0086404262 0.704 -0.043202132 9.6031684e-39 327 275
0.0098747732 0.704 -0.043202132 1.171467e-38 328 275
0.011109119 0.704 -0.043202132 1.171467e-38 329 275
0.012378532 0.70599997 -0.043324865 1.2451505e-38 330 275
0.013635674 0.70700002 -0.043386232 1.2728093e-38 331 275
0.01489632 0.708 -0.043447599 1.2268193e-38 332 275
0.016183265 0.70999998 -0.043570329 1.2175997e-38 333 275
0.01745268 0.71100003 -0.043631699 1.2083796e-38 334 275
0.018778199 0.71399999 -0.043815799 1.2083796e-38 335 275
0.020030079 0.71399999 -0.043815799 1.1900481e-38 336 275
0.021341572 0.71600002 -0.043938532 1.2269262e-38 337 275
0.02262852 0.71700001 -0.043999899 1.3187604e-38 338 275
0.02388566 0.71700001 -0.043999899 1.6599201e-38 339 275
0.0251428 0.71700001 -0.043999899 1.9638035e-38 340 275
0.02639994 0.71700001 -0.043999899 2.2403904e-38 341 275
-0.036406212 0.71600002 -0.045193922 1.9084142e-38 291 276
-0.035150826 0.71600002 -0.045193922 1.014371e-38 292 276
-0.03389544 0.71600002 -0.045193922 9.037362e-39 293 276
-0.032640055 0.71600002 -0.045193922 9.8721925e-39 294 276
-0.031296998 0.71399999 -0.045067675 1.1532074e-38 295 276
-0.030003037 0.713 -0.045004558 1.4937197e-38 296 276
-0.028631933 0.70999998 -0.044815198 1.4937197e-38 297 276
-0.027309919 0.708 -0.044688959 1.310299e-38 298 276
-0.026068559 0.708 -0.044688959 1.3471771e-38 299 276
-0.024792133 0.70700002 -0.044625837 1.420537e-38 300 276
-0.023519212 0.70599997 -0.044562716 1.485074e-38 301 276
-0.022281358 0.70599997 -0.044562716 1.5219524e-38 302 276
-0.021043506 0.70599997 -0.044562716 1.5312078e-38 303 276
-0.019805651 0.70599997 -0.044562716 1.4669595e-38 304 276
-0.018515198 0.704 -0.044436477 1.4300814e-38 305 276
-0.017280852 0.704 -0.044436477 1.3471421e-38 306 276
-0.016046507 0.704 -0.044436477 1.39324e-38 307 276
-0.014791119 0.70300001 -0.04437336 1.5223142e-38 308 276
-0.013558527 0.70300001 -0.04437336 1.5407173e-38 309 276
-0.012325933 0.70300001 -0.04437336 1.5130943e-38 310 276
-0.01109334 0.70300001 -0.04437336 1.5130943e-38 311 276
-0.0098326923 0.70099998 -0.044247117 1.485508e-38 312 276
-0.0085913334 0.69999999 -0.044183996 1.5316058e-38 313 276
-0.0073639993 0.69999999 -0.044183996 1.43941e-38 314 276
-0.0061366665 0.69999999 -0.044183996 1.1997015e-38 315 276
-0.0049093333 0.69999999 -0.044183996 1.319232e-38 316 276
-0.0036819996 0.69999999 -0.044183996 1.3468548e-38 317 276
-0.0024546667 0.69999999 -0.044183996 1.2917892e-38 318 276
-0.0012290865 0.70099998 -0.044247117 1.2641664e-38 319 276
0 0.70300001 -0.04437336 1.3100837e-38 320 276
0.0012325933 0.70300001 -0.04437336 1.3008642e-38 321 276
0.0024651866 0.70300001 -0.04437336 1.3188351e-38 322 276
0.0036977797 0.70300001 -0.04437336 1.2542982e-38 323 276
0.0049303733 0.70300001 -0.04437336 1.1991976e-38 324 276
0.0061717331 0.704 -0.044436477 1.2360758e-38 325 276
0.0074060797 0.704 -0.044436477 1.0798119e-38 326 276
0.0086404262 0.704 -0.044436477 9.876161e-39 327 276
0.0098747732 0.704 -0.044436477 1.125621e-38 328 276
0.011140679 0.70599997 -0.044562716 1.125621e-38 329 276
0.012378532 0.70599997 -0.044562716 1.2360389e-38 330 276
0.013635674 0.70700002 -0.044625837 1.2268193e-38 331 276
0.01489632 0.708 -0.044688959 1.1991247e-38 332 276
0.016183265 0.70999998 -0.044815198 1.2083443e-38 333 276
0.017501773 0.713 -0.045004558 1.2174194e-38 334 276
0.018778199 0.71399999 -0.045067675 1.2174194e-38 335 276
0.020086186 0.71600002 -0.045193922 1.1623893e-38 336 276
0.021341572 0.71600002 -0.045193922 1.2085231e-38 337 276
0.02262852 0.71700001 -0.045257039 1.3004658e-38 338 276
0.02388566 0.71700001 -0.045257039 1.6416255e-38 339 276
0.025212931 0.71899998 -0.045383278 1.963984e-38 340 276
0.02647358 0.71899998 -0.045383278 2.1852535e-38 341 276
-0.036558751 0.71899998 -0.046643924 2.0558549e-38 291 277
-0.035298105 0.71899998 -0.046643924 1.0605764e-38 292 277
-0.03403746 0.71899998 -0.046643924 8.8536868e-39 293 277
-0.032776814 0.71899998 -0.046643924 1.1344439e-38 294 277
-0.031384666 0.71600002 -0.046449307 1.0883102e-38 295 277
-0.030045118 0.71399999 -0.046319555 9.783594e-39 296 277
-0.028672259 0.71100003 -0.046124939 1.1166528e-38 297 277
-0.027387066 0.70999998 -0.046060063 1.2455102e-38 298 277
-0.026068559 0.708 -0.045930319 1.3100472e-38 299 277
-0.024792133 0.70700002 -0.045865446 1.4662756e-38 300 277
-0.023552528 0.70700002 -0.045865446 1.6506668e-38 301 277
-0.022312919 0.70700002 -0.045865446 1.6325874e-38 302 277
-0.021073313 0.70700002 -0.045865446 1.641807e-38 303 277
-0.019805651 0.70599997 -0.04580057 1.6142927e-38 304 277
-0.018567799 0.70599997 -0.04580057 1.5866342e-38 305 277
-0.017280852 0.704 -0.045670826 1.5590119e-38 306 277
-0.016046507 0.704 -0.045670826 1.5313893e-38 307 277
-0.014812159 0.704 -0.045670826 1.5590122e-38 308 277
-0.013577812 0.704 -0.045670826 1.5682318e-38 309 277
-0.012343466 0.704 -0.045670826 1.5223142e-38 310 277
-0.01109334 0.70300001 -0.04560595 1.5130946e-38 311 277
-0.0098607466 0.70300001 -0.04560595 1.5038751e-38 312 277
-0.0086281532 0.70300001 -0.04560595 1.5407173e-38 313 277
-0.0073955595 0.70300001 -0.04560595 1.4209713e-38 314 277
-0.0061629666 0.70300001 -0.04560595 1.1904462e-38 315 277
-0.0049303733 0.70300001 -0.04560595 1.2640235e-38 316 277
-0.0036977797 0.70300001 -0.04560595 1.2548039e-38 317 277
-0.0024651866 0.70300001 -0.04560595 1.2455122e-38 318 277
-0.0012325933 0.70300001 -0.04560595 1.2178535e-38 319 277
0 0.70300001 -0.04560595 1.273026e-38 320 277
0.0012343467 0.704 -0.045670826 1.2822457e-38 321 277
0.0024686933 0.704 -0.045670826 1.2638417e-38 322 277
0.0037030398 0.704 -0.045670826 1.2269636e-38 323 277
0.0049373866 0.704 -0.045670826 1.2728818e-38 324 277
0.0061717331 0.704 -0.045670826 1.2821014e-38 325 277
0.0074060797 0.704 -0.045670826 1.1073264e-38 326 277
0.0086404262 0.704 -0.045670826 9.7825248e-39 327 277
0.0099028256 0.70599997 -0.04580057 1.1072536e-38 328 277
0.011140679 0.70599997 -0.04580057 1.1256929e-38 329 277
0.012396066 0.70700002 -0.045865446 1.2268912e-38 330 277
0.013654959 0.708 -0.045930319 1.2084881e-38 331 277
0.014938398 0.70999998 -0.046060063 1.1810089e-38 332 277
0.016183265 0.70999998 -0.046060063 1.1717534e-38 333 277
0.017501773 0.713 -0.046254687 1.1900484e-38 334 277
0.018778199 0.71399999 -0.046319555 1.1900484e-38 335 277
0.020086186 0.71600002 -0.046449307 1.226854e-38 336 277
0.021371379 0.71700001 -0.046514176 1.2637323e-38 337 277
0.02262852 0.71700001 -0.046514176 1.3005014e-38 338 277
0.02388566 0.71700001 -0.046514176 1.6416252e-38 339 277
0.025212931 0.71899998 -0.046643924 1.9456172e-38 340 277
0.02647358 0.71899998 -0.046643924 2.1300084e-38 341 277
-0.036558751 0.71899998 -0.04790457 2.1573424e-38 291 278
-0.035298105 0.71899998 -0.04790457 1.4014474e-38 292 278
-0.03403746 0.71899998 -0.04790457 1.0695432e-38 293 278
-0.032776814 0.71899998 -0.04790457 1.2726282e-38 294 278
-0.031384666 0.71600002 -0.047704693 1.1803967e-38 295 278
-0.03012928 0.71600002 -0.047704693 9.1335429e-39 296 278
-0.028793238 0.71399999 -0.047571439 1.0147335e-38 297 278
-0.027387066 0.70999998 -0.047304932 9.9676153e-39 298 278
-0.026142199 0.70999998 -0.047304932 1.1074323e-38 299 278
-0.024827199 0.708 -0.047171678 1.3374185e-38 300 278
-0.023552528 0.70700002 -0.047105055 1.5955662e-38 301 278
-0.022312919 0.70700002 -0.047105055 1.6877974e-38 302 278
-0.021073313 0.70700002 -0.047105055 1.7338594e-38 303 278
-0.019805651 0.70599997 -0.047038425 1.6788294e-38 304 278
-0.018567799 0.70599997 -0.047038425 1.6512067e-38 305 278
-0.017329946 0.70599997 -0.047038425 1.6235486e-38 306 278
-0.016046507 0.704 -0.046905171 1.5959259e-38 307 278
-0.014812159 0.704 -0.046905171 1.5591203e-38 308 278
-0.013577812 0.704 -0.046905171 1.5499006e-38 309 278
-0.012343466 0.704 -0.046905171 1.5223139e-38 310 278
-0.011109119 0.704 -0.046905171 1.5130943e-38 311 278
-0.0098747732 0.704 -0.046905171 1.5130943e-38 312 278
-0.0086281532 0.70300001 -0.046838548 1.5130943e-38 313 278
-0.0073955595 0.70300001 -0.046838548 1.4209713e-38 314 278
-0.0061629666 0.70300001 -0.046838548 1.1812266e-38 315 278
-0.0049303733 0.70300001 -0.046838548 1.1995588e-38 316 278
-0.0036977797 0.70300001 -0.046838548 1.1903393e-38 317 278
-0.0024651866 0.70300001 -0.046838548 1.1811913e-38 318 278
-0.0012325933 0.70300001 -0.046838548 1.1627882e-38 319 278
0 0.704 -0.046905171 1.2271804e-38 320 278
0.0012343467 0.704 -0.046905171 1.254839e-38 321 278
0.0024686933 0.704 -0.046905171 1.2640938e-38 322 278
0.0037030398 0.704 -0.046905171 1.2548384e-38 323 278
0.0049514128 0.70599997 -0.047038425 1.2640214e-38 324 278
0.0061892662 0.70599997 -0.047038425 1.2363626e-38 325 278
0.0074271196 0.70599997 -0.047038425 1.08885e-38 326 278
0.0086649731 0.70599997 -0.047038425 1.042752e-38 327 278
0.0099028256 0.70599997 -0.047038425 1.1439525e-38 328 278
0.011140679 0.70599997 -0.047038425 1.1900502e-38 329 278
0.012396066 0.70700002 -0.047105055 1.2177441e-38 330 278
0.013654959 0.708 -0.047171678 1.2177441e-38 331 278
0.014938398 0.70999998 -0.047304932 1.1901929e-38 332 278
0.01620606 0.71100003 -0.047371563 1.1717537e-38 333 278
0.017501773 0.713 -0.047504812 1.2084875e-38 334 278
0.018778199 0.71399999 -0.047571439 1.2268906e-38 335 278
0.020086186 0.71600002 -0.047704693 1.2729872e-38 336 278
0.021371379 0.71700001 -0.04777132 1.2453286e-38 337 278
0.02262852 0.71700001 -0.04777132 1.2635505e-38 338 278
0.02388566 0.71700001 -0.04777132 1.6507722e-38 339 278
0.0251428 0.71700001 -0.04777132 1.9453653e-38 340 278
0.02639994 0.71700001 -0.04777132 2.1389762e-38 341 278
0.027657079 0.71700001 -0.04777132 2.1573071e-38 342 278
-0.036609601 0.72000003 -0.0492336 2.1757818e-38 291 279
-0.035347197 0.72000003 -0.0492336 1.816147e-38 292 279
-0.034084801 0.72000003 -0.0492336 1.456548e-38 293 279
-0.0328224 0.72000003 -0.0492336 1.1247166e-38 294 279
-0.031428497 0.71700001 -0.04902846 1.1339362e-38 295 279
-0.03012928 0.71600002 -0.048960082 1.2255943e-38 296 279
-0.028793238 0.71399999 -0.048823316 1.2993508e-38 297 279
-0.027425639 0.71100003 -0.048618179 9.2279217e-39 298 279
-0.026142199 0.70999998 -0.048549797 3.4195971e-39 299 279
-0.024827199 0.708 -0.048413038 1.0333343e-39 300 279
-0.023552528 0.70700002 -0.048344657 4.0754314e-39 301 279
-0.022312919 0.70700002 -0.048344657 8.220262e-39 302 279
-0.021073313 0.70700002 -0.048344657 1.061699e-38 303 279
-0.019833706 0.70700002 -0.048344657 1.338175e-38 304 279
-0.018567799 0.70599997 -0.048276275 1.4948716e-38 305 279
-0.017329946 0.70599997 -0.048276275 1.5959981e-38 306 279
-0.016092092 0.70599997 -0.048276275 1.55912e-38 307 279
-0.014854239 0.70599997 -0.048276275 1.5499726e-38 308 279
-0.013577812 0.704 -0.048139516 1.540717e-38 309 279
-0.012343466 0.704 -0.048139516 1.5040548e-38 310 279
-0.011109119 0.704 -0.048139516 1.4948353e-38 311 279
-0.0098747732 0.704 -0.048139516 1.4856873e-38 312 279
-0.0086404262 0.704 -0.048139516 1.5041266e-38 313 279
-0.0074060797 0.704 -0.048139516 1.4761806e-38 314 279
-0.0061717331 0.704 -0.048139516 1.2272526e-38 315 279
-0.0049303733 0.70300001 -0.048071139 1.2273254e-38 316 279
-0.0036977797 0.70300001 -0.048071139 1.1996309e-38 317 279
-0.0024686933 0.704 -0.048139516 1.1813715e-38 318 279
-0.0012343467 0.704 -0.048139516 1.1813715e-38 319 279
0 0.704 -0.048139516 1.199846e-38 320 279
0.0012343467 0.704 -0.048139516 1.2090655e-38 321 279
0.0024757064 0.70599997 -0.048276275 1.2365074e-38 322 279
0.0037135598 0.70599997 -0.048276275 1.1904096e-38 323 279
0.0049514128 0.70599997 -0.048276275 9.7922288e-39 324 279
0.0061892662 0.70599997 -0.048276275 1.0161011e-38 325 279
0.0074271196 0.70599997 -0.048276275 1.2913206e-38 326 279
0.0086649731 0.70599997 -0.048276275 1.2452588e-38 327 279
0.0099028256 0.70599997 -0.048276275 1.2450789e-38 328 279
0.011140679 0.70599997 -0.048276275 1.2358235e-38 329 279
0.012396066 0.70700002 -0.048344657 1.2268559e-38 330 279
0.013654959 0.708 -0.048413038 1.2268559e-38 331 279
0.014938398 0.70999998 -0.048549797 1.1901931e-38 332 279
0.01620606 0.71100003 -0.048618179 1.1809736e-38 333 279
0.017526319 0.71399999 -0.048823316 1.226819e-38 334 279
0.0188308 0.71600002 -0.048960082 1.2452583e-38 335 279
0.020086186 0.71600002 -0.048960082 1.309614e-38 336 279
0.021371379 0.71700001 -0.04902846 1.2911749e-38 337 279
0.02262852 0.71700001 -0.04902846 1.2634787e-38 338 279
0.02388566 0.71700001 -0.04902846 1.632261e-38 339 279
0.0251428 0.71700001 -0.04902846 1.9361458e-38 340 279
0.02639994 0.71700001 -0.04902846 2.1389762e-38 341 279
0.027657079 0.71700001 -0.04902846 2.1481231e-38 342 279
-0.036609601 0.72000003 -0.050496001 2.1205365e-38 291 280
-0.035347197 0.72000003 -0.050496001 1.8716804e-38 292 280
-0.034084801 0.72000003 -0.050496001 1.6780696e-38 293 280
-0.0328224 0.72000003 -0.050496001 1.484061e-38 294 280
-0.031516165 0.71899998 -0.050425861 1.3272924e-38 295 280
-0.030171359 0.71700001 -0.0502856 1.3275823e-38 296 280
-0.028873893 0.71600002 -0.050215468 1.3459856e-38 297 280
-0.02754136 0.71399999 -0.050075196 1.079165e-38 298 280
-0.026179021 0.71100003 -0.049864799 4.5227076e-39 299 280
-0.024897331 0.70999998 -0.049794663 1.3452465e-43 300 280
-0.023585839 0.708 -0.049654398 1.2135245e-42 301 280
-0.022344479 0.708 -0.049654398 8.427409e-42 302 280
-0.021103119 0.708 -0.049654398 2.1343289e-39 303 280
-0.019833706 0.70700002 -0.049584266 6.4714457e-39 304 280
-0.018567799 0.70599997 -0.04951413 1.0712803e-38 305 280
-0.017329946 0.70599997 -0.04951413 1.5132758e-38 306 280
-0.016092092 0.70599997 -0.04951413 1.5593735e-38 307 280
-0.014854239 0.70599997 -0.04951413 1.5132743e-38 308 280
-0.013616386 0.70599997 -0.04951413 1.5040546e-38 309 280
-0.012378532 0.70599997 -0.04951413 1.5040546e-38 310 280
-0.011109119 0.704 -0.049373865 1.494835e-38 311 280
-0.0098747732 0.704 -0.049373865 1.5040546e-38 312 280
-0.0086404262 0.704 -0.049373865 1.5316774e-38 313 280
-0.0074060797 0.704 -0.049373865 1.4578141e-38 314 280
-0.0061717331 0.704 -0.049373865 1.1811913e-38 315 280
-0.0049373866 0.704 -0.049373865 1.208851e-38 316 280
-0.0037030398 0.704 -0.049373865 1.1903759e-38 317 280
-0.0024686933 0.704 -0.049373865 1.1721167e-38 318 280
-0.0012343467 0.704 -0.049373865 1.1721167e-38 319 280
0 0.70599997 -0.04951413 1.1905911e-38 320 280
0.0012378532 0.70599997 -0.04951413 1.1813715e-38 321 280
0.0024757064 0.70599997 -0.04951413 1.2272876e-38 322 280
0.0037135598 0.70599997 -0.04951413 1.1904452e-38 323 280
0.0049514128 0.70599997 -0.04951413 9.053219e-39 324 280
0.0061892662 0.70599997 -0.04951413 1.006773e-38 325 280
0.0074271196 0.70599997 -0.04951413 1.282316e-38 326 280
0.0086649731 0.70599997 -0.04951413 1.2546572e-38 327 280
0.0099168532 0.70700002 -0.049584266 1.2911396e-38 328 280
0.011156459 0.70700002 -0.049584266 1.2819199e-38 329 280
0.0124136 0.708 -0.049654398 1.2085244e-38 330 280
0.013693533 0.70999998 -0.049794663 1.1993048e-38 331 280
0.014959441 0.71100003 -0.049864799 1.2268556e-38 332 280
0.01620606 0.71100003 -0.049864799 1.2084525e-38 333 280
0.017526319 0.71399999 -0.050075196 1.2451502e-38 334 280
0.0188308 0.71600002 -0.050215468 1.2636254e-38 335 280
0.020114239 0.71700001 -0.0502856 1.2912112e-38 336 280
0.021371379 0.71700001 -0.0502856 1.2543688e-38 337 280
0.022691639 0.71899998 -0.050425861 1.217453e-38 338 280
0.023952285 0.71899998 -0.050425861 1.6046747e-38 339 280
0.0251428 0.71700001 -0.0502856 1.9362177e-38 340 280
0.02639994 0.71700001 -0.0502856 2.1021699e-38 341 280
0.027657079 0.71700001 -0.0502856 2.1205368e-38 342 280
-0.035347197 0.72000003 -0.051758397 1.8442388e-38 292 281
-0.034084801 0.72000003 -0.051758397 1.7059454e-38 293 281
-0.0328224 0.72000003 -0.051758397 1.7422829e-38 294 281
-0.031516165 0.71899998 -0.05168651 1.548672e-38 295 281
-0.030171359 0.71700001 -0.051542737 1.2359992e-38 296 281
-0.028873893 0.71600002 -0.051470853 1.1346199e-38 297 281
-0.02754136 0.71399999 -0.05132708 1.1066047e-38 298 281
-0.026179021 0.71100003 -0.051111419 7.1941906e-39 299 281
-0.024897331 0.70999998 -0.051039528 1.3909457e-39 300 281
-0.023585839 0.708 -0.050895758 9.2996752e-40 301 281
-0.022344479 0.708 -0.050895758 5.5980052e-40 302 281
-0.021162732 0.70999998 -0.051039528 5.1876069e-42 303 281
-0.019833706 0.70700002 -0.050823875 3.751276e-42 304 281
-0.018594101 0.70700002 -0.050823875 2.7761012e-39 305 281
-0.017329946 0.70599997 -0.050751984 1.2922958e-38 306 281
-0.016092092 0.70599997 -0.050751984 1.4859054e-38 307 281
-0.014854239 0.70599997 -0.050751984 1.5132018e-38 308 281
-0.013616386 0.70599997 -0.050751984 1.5224214e-38 309 281
-0.012378532 0.70599997 -0.050751984 1.5040546e-38 310 281
-0.011140679 0.70599997 -0.050751984 1.5040546e-38 311 281
-0.0099028256 0.70599997 -0.050751984 1.4948353e-38 312 281
-0.0086404262 0.704 -0.050608214 1.5316777e-38 313 281
-0.0074060797 0.704 -0.050608214 1.4393391e-38 314 281
-0.0061717331 0.704 -0.050608214 1.0798122e-38 315 281
-0.0049373866 0.704 -0.050608214 1.1716849e-38 316 281
-0.0037030398 0.704 -0.050608214 1.1901242e-38 317 281
-0.0024686933 0.704 -0.050608214 1.199344e-38 318 281
-0.0012378532 0.70599997 -0.050751984 1.2546614e-38 319 281
0 0.70599997 -0.050751984 1.199703e-38 320 281
0.0012378532 0.70599997 -0.050751984 1.1812999e-38 321 281
0.0024757064 0.70599997 -0.050751984 1.2548036e-38 322 281
0.0037135598 0.70599997 -0.050751984 1.2640232e-38 323 281
0.0049514128 0.70599997 -0.050751984 1.2179244e-38 324 281
0.0061892662 0.70599997 -0.050751984 1.208669e-38 325 281
0.0074271196 0.70599997 -0.050751984 1.2363628e-38 326 281
0.008677247 0.70700002 -0.050823875 1.2179238e-38 327 281
0.0099168532 0.70700002 -0.050823875 1.2638052e-38 328 281
0.01117224 0.708 -0.050895758 1.2453302e-38 329 281
0.012448666 0.70999998 -0.051039528 1.1993045e-38 330 281
0.01371282 0.71100003 -0.051111419 1.190085e-38 331 281
0.014959441 0.71100003 -0.051111419 1.2175997e-38 332 281
0.016274439 0.71399999 -0.05132708 1.2268193e-38 333 281
0.017575413 0.71600002 -0.051470853 1.2544054e-38 334 281
0.0188308 0.71600002 -0.051470853 1.2636251e-38 335 281
0.020114239 0.71700001 -0.051542737 1.2912468e-38 336 281
0.021430992 0.71899998 -0.05168651 1.2267098e-38 337 281
0.022691639 0.71899998 -0.05168651 1.1713553e-38 338 281
0.023952285 0.71899998 -0.05168651 1.5954551e-38 339 281
0.025248 0.72000003 -0.051758397 1.9178508e-38 340 281
0.026510401 0.72000003 -0.051758397 2.0745474e-38 341 281
