# .PCD v.7 - Point Cloud Data file format
FIELDS x y z rgb imX imY
SIZE 4 4 4 4 4 4
TYPE F F F F F F
COUNT 1 1 1 1 1 1
WIDTH 831
HEIGHT 1
VIEWPOINT 0 0 0 1 0 0 0
POINTS 831
DATA ascii
-0.019469013 0.69400001 -0.021902639 1.5863101e-38 304 258
-0.018225901 0.69300002 -0.021871079 1.5955296e-38 305 258
-0.01701084 0.69300002 -0.021871079 1.494475e-38 306 258
-0.015795778 0.69300002 -0.021871079 1.494475e-38 307 258
-0.014580719 0.69300002 -0.021871079 1.4854356e-38 308 258
-0.013327086 0.69099998 -0.021807959 1.4301183e-38 309 258
-0.012115533 0.69099998 -0.021807959 1.2642034e-38 310 258
-0.010888199 0.69 -0.021776399 9.8761638e-39 311 258
-0.0096783992 0.69 -0.021776399 7.9512029e-39 312 258
-0.0084686 0.69 -0.021776399 9.9798655e-39 313 258
-0.0072587994 0.69 -0.021776399 1.4566617e-38 314 258
-0.0060489997 0.69 -0.021776399 1.3921247e-38 315 258
-0.0048391996 0.69 -0.021776399 1.1720058e-38 316 258
-0.0036293997 0.69 -0.021776399 1.1812254e-38 317 258
-0.0024195998 0.69 -0.021776399 1.1899778e-38 318 258
-0.0012097999 0.69 -0.021776399 1.0609039e-38 319 258
0 0.69 -0.021776399 8.5926122e-39 320 258
0.0012097999 0.69 -0.021776399 8.8692005e-39 321 258
0.0024195998 0.69 -0.021776399 9.422726e-39 322 258
0.0036451798 0.69300002 -0.021871079 9.3305304e-39 323 258
0.00486024 0.69300002 -0.021871079 8.6851582e-39 324 258
0.0060753003 0.69300002 -0.021871079 9.6071159e-39 325 258
0.0073008798 0.69400001 -0.021902639 1.2820648e-38 326 258
0.0085176928 0.69400001 -0.021902639 9.1324625e-39 327 258
0.0097345067 0.69400001 -0.021902639 9.7731473e-39 328 258
0.010982879 0.69599998 -0.021965759 1.0418517e-38 329 258
0.0122032 0.69599998 -0.021965759 9.9665293e-39 330 258
0.013423519 0.69599998 -0.021965759 1.0427149e-38 331 258
0.01466488 0.69700003 -0.02199732 1.1347663e-38 332 258
0.015909746 0.69800001 -0.02202888 1.1993033e-38 333 258
0.017182667 0.69999999 -0.022091998 1.2819549e-38 334 258
0.018436298 0.70099998 -0.022123558 1.2266377e-38 335 258
0.019721493 0.70300001 -0.02218668 1.1345142e-38 336 258
0.020983893 0.704 -0.022218239 1.1252947e-38 337 258
0.022281358 0.70599997 -0.022281358 1.1714625e-38 338 258
0.023552528 0.70700002 -0.022312919 1.6785385e-38 339 258
0.024792133 0.70700002 -0.022312919 2.0560349e-38 340 258
-0.038427804 0.70700002 -0.023552528 2.2864882e-38 289 259
-0.037188202 0.70700002 -0.023552528 2.0280888e-38 290 259
-0.035897743 0.70599997 -0.023519212 1.6593421e-38 291 259
-0.034659892 0.70599997 -0.023519212 1.6304934e-38 292 259
-0.03332736 0.704 -0.023452586 1.4276631e-38 293 259
-0.032047424 0.70300001 -0.023419274 1.4176855e-38 294 259
-0.030727165 0.70099998 -0.023352645 1.4361248e-38 295 259
-0.029455997 0.69999999 -0.023319334 1.4546008e-38 296 259
-0.028148014 0.69800001 -0.023252707 1.1226965e-38 297 259
-0.026924185 0.69800001 -0.023252707 1.3591686e-38 298 259
-0.025663542 0.69700003 -0.023219392 1.2489644e-38 299 259
-0.0244064 0.69599998 -0.023186078 1.1754987e-38 300 259
-0.023119451 0.69400001 -0.023119451 1.3503834e-38 301 259
-0.021902639 0.69400001 -0.023119451 1.2515989e-38 302 259
-0.020685827 0.69400001 -0.023119451 1.629601e-38 303 259
-0.019469013 0.69400001 -0.023119451 1.5210191e-38 304 259
-0.018225901 0.69300002 -0.02308614 1.6869712e-38 305 259
-0.01701084 0.69300002 -0.02308614 1.5128425e-38 306 259
-0.015795778 0.69300002 -0.02308614 1.503623e-38 307 259
-0.014580719 0.69300002 -0.02308614 1.5038026e-38 308 259
-0.01336566 0.69300002 -0.02308614 1.4392657e-38 309 259
-0.012115533 0.69099998 -0.023019511 1.1536052e-38 310 259
-0.01090398 0.69099998 -0.023019511 7.5716402e-39 311 259
-0.0096783992 0.69 -0.022986198 6.4789469e-39 312 259
-0.0084686 0.69 -0.022986198 8.3232196e-39 313 259
-0.0072587994 0.69 -0.022986198 1.2450768e-38 314 259
-0.0060489997 0.69 -0.022986198 1.152881e-38 315 259
-0.0048391996 0.69 -0.022986198 9.5098616e-39 316 259
-0.0036293997 0.69 -0.022986198 9.8786441e-39 317 259
-0.0024195998 0.69 -0.022986198 1.0152009e-38 318 259
-0.0012097999 0.69 -0.022986198 7.3857818e-39 319 259
0 0.69 -0.022986198 6.1976811e-39 320 259
0.0012097999 0.69 -0.022986198 6.4739078e-39 321 259
0.0024231065 0.69099998 -0.023019511 4.9091227e-39 322 259
0.0036451798 0.69300002 -0.02308614 4.3559489e-39 323 259
0.00486024 0.69300002 -0.02308614 4.6307407e-39 324 259
0.0060753003 0.69300002 -0.02308614 7.8575878e-39 325 259
0.0073008798 0.69400001 -0.023119451 1.3279465e-38 326 259
0.0085176928 0.69400001 -0.023119451 1.17125e-38 327 259
0.0097625591 0.69599998 -0.023186078 1.1895799e-38 328 259
0.010982879 0.69599998 -0.023186078 1.207983e-38 329 259
0.0122032 0.69599998 -0.023186078 1.162354e-38 330 259
0.013442807 0.69700003 -0.023219392 1.1900487e-38 331 259
0.01468592 0.69800001 -0.023252707 1.2084878e-38 332 259
0.015955333 0.69999999 -0.023319334 1.2361106e-38 333 259
0.017207211 0.70099998 -0.023352645 1.208343e-38 334 259
0.018436298 0.70099998 -0.023352645 1.1806483e-38 335 259
0.019721493 0.70300001 -0.023419274 1.1530612e-38 336 259
0.021043506 0.70599997 -0.023519212 1.1530612e-38 337 259
0.022281358 0.70599997 -0.023519212 1.2357111e-38 338 259
0.023585839 0.708 -0.023585839 1.7335315e-38 339 259
0.024827199 0.708 -0.023585839 2.0560346e-38 340 259
-0.0372408 0.708 -0.024827199 1.96366e-38 290 260
-0.035948593 0.70700002 -0.024792133 1.5856219e-38 291 260
-0.034659892 0.70599997 -0.024757065 1.7780809e-38 292 260
-0.033422034 0.70599997 -0.024757065 1.7135439e-38 293 260
-0.032093015 0.704 -0.024686933 1.6393536e-38 294 260
-0.030814834 0.70300001 -0.024651866 1.528719e-38 295 260
-0.029498078 0.70099998 -0.024581732 1.5001584e-38 296 260
-0.028228667 0.69999999 -0.024546666 1.2050965e-38 297 260
-0.026924185 0.69800001 -0.024476532 1.4334999e-38 298 260
-0.025663542 0.69700003 -0.024441468 1.4888173e-38 299 260
-0.024441468 0.69700003 -0.024441468 1.4244254e-38 300 260
-0.023186078 0.69599998 -0.0244064 1.3875112e-38 301 260
-0.021902639 0.69400001 -0.024336265 1.3134351e-38 302 260
-0.020685827 0.69400001 -0.024336265 1.3502775e-38 303 260
-0.019469013 0.69400001 -0.024336265 1.2318302e-38 304 260
-0.018225901 0.69300002 -0.024301201 1.7204312e-38 305 260
-0.01701084 0.69300002 -0.024301201 1.5034063e-38 306 260
-0.015795778 0.69300002 -0.024301201 1.5587236e-38 307 260
-0.014580719 0.69300002 -0.024301201 1.5221697e-38 308 260
-0.01336566 0.69300002 -0.024301201 1.4668523e-38 309 260
-0.012115533 0.69099998 -0.024231065 1.3099768e-38 310 260
-0.01090398 0.69099998 -0.024231065 9.2275518e-39 311 260
-0.0096924258 0.69099998 -0.024231065 8.950246e-39 312 260
-0.008480873 0.69099998 -0.024231065 8.7654946e-39 313 260
-0.0072587994 0.69 -0.024195999 9.8693115e-39 314 260
-0.0060489997 0.69 -0.024195999 9.7767571e-39 315 260
-0.0048462129 0.69099998 -0.024231065 1.0235217e-38 316 260
-0.0036346598 0.69099998 -0.024231065 1.1710347e-38 317 260
-0.0024231065 0.69099998 -0.024231065 1.1166534e-38 318 260
-0.0012115532 0.69099998 -0.024231065 1.0428969e-38 319 260
0 0.69099998 -0.024231065 1.0243855e-38 320 260
0.0012115532 0.69099998 -0.024231065 1.0889224e-38 321 260
0.0024231065 0.69099998 -0.024231065 1.0154174e-38 322 260
0.0036451798 0.69300002 -0.024301201 1.024637e-38 323 260
0.00486024 0.69300002 -0.024301201 1.1807216e-38 324 260
0.0060753003 0.69300002 -0.024301201 1.2083443e-38 325 260
0.0073008798 0.69400001 -0.024336265 1.2358219e-38 326 260
0.0085176928 0.69400001 -0.024336265 1.2266024e-38 327 260
0.0097625591 0.69599998 -0.0244064 1.2726645e-38 328 260
0.010982879 0.69599998 -0.0244064 1.2911396e-38 329 260
0.0122032 0.69599998 -0.0244064 1.2636254e-38 330 260
0.013442807 0.69700003 -0.024441468 1.2267471e-38 331 260
0.01468592 0.69800001 -0.024476532 1.162462e-38 332 260
0.015955333 0.69999999 -0.024546666 1.1255836e-38 333 260
0.017207211 0.70099998 -0.024581732 1.1989435e-38 334 260
0.018488899 0.70300001 -0.024651866 1.2266024e-38 335 260
0.019749546 0.704 -0.024686933 1.2725553e-38 336 260
0.021043506 0.70599997 -0.024757065 1.3094694e-38 337 260
0.022312919 0.70700002 -0.024792133 1.3461303e-38 338 260
0.023585839 0.708 -0.024827199 1.7886693e-38 339 260
0.024932399 0.71100003 -0.024932399 2.0284485e-38 340 260
0.026179021 0.71100003 -0.024932399 2.1851809e-38 341 260
-0.0372408 0.708 -0.026068559 1.9174546e-38 290 261
-0.035948593 0.70700002 -0.02603174 1.5025384e-38 291 261
-0.034659892 0.70599997 -0.025994917 1.7319846e-38 292 261
-0.033422034 0.70599997 -0.025994917 1.7965215e-38 293 261
-0.032093015 0.704 -0.02592128 1.6397871e-38 294 261
-0.030814834 0.70300001 -0.025884461 1.6674458e-38 295 261
-0.029582238 0.70300001 -0.025884461 1.5008787e-38 296 261
-0.028228667 0.69999999 -0.025773998 1.1966332e-38 297 261
-0.026924185 0.69800001 -0.025700359 1.3974478e-38 298 261
-0.025700359 0.69800001 -0.025700359 1.3052522e-38 299 261
-0.024441468 0.69700003 -0.025663542 1.451976e-38 300 261
-0.023186078 0.69599998 -0.025626717 1.451976e-38 301 261
-0.021965759 0.69599998 -0.025626717 1.3689645e-38 302 261
-0.020745439 0.69599998 -0.025626717 1.249146e-38 303 261
-0.019525118 0.69599998 -0.025626717 1.0561114e-38 304 261
-0.0182522 0.69400001 -0.025553079 1.4704894e-38 305 261
-0.01701084 0.69300002 -0.02551626 1.6041359e-38 306 261
-0.015795778 0.69300002 -0.02551626 1.7332097e-38 307 261
-0.014580719 0.69300002 -0.02551626 1.494583e-38 308 261
-0.01336566 0.69300002 -0.02551626 1.4392657e-38 309 261
-0.012150601 0.69300002 -0.02551626 1.2826425e-38 310 261
-0.01090398 0.69099998 -0.025442619 1.0890317e-38 311 261
-0.0096924258 0.69099998 -0.025442619 1.1166534e-38 312 261
-0.008480873 0.69099998 -0.025442619 1.1350925e-38 313 261
-0.0072903596 0.69300002 -0.02551626 1.180938e-38 314 261
-0.0060753003 0.69300002 -0.02551626 1.1624988e-38 315 261
-0.0048462129 0.69099998 -0.025442619 1.1532443e-38 316 261
-0.0036346598 0.69099998 -0.025442619 1.2085616e-38 317 261
-0.0024231065 0.69099998 -0.025442619 1.217674e-38 318 261
-0.0012115532 0.69099998 -0.025442619 1.1992347e-38 319 261
0 0.69099998 -0.025442619 1.226821e-38 320 261
0.0012115532 0.69099998 -0.025442619 1.2452601e-38 321 261
0.00243012 0.69300002 -0.02551626 1.024602e-38 322 261
0.0036451798 0.69300002 -0.02551626 9.6928459e-39 323 261
0.00486024 0.69300002 -0.02551626 1.1164736e-38 324 261
0.0060840664 0.69400001 -0.025553079 1.1256932e-38 325 261
0.0073008798 0.69400001 -0.025553079 1.1347313e-38 326 261
0.0085176928 0.69400001 -0.025553079 1.1807932e-38 327 261
0.0097625591 0.69599998 -0.025626717 1.2818843e-38 328 261
0.01099866 0.69700003 -0.025663542 1.2818843e-38 329 261
0.012220734 0.69700003 -0.025663542 1.2268187e-38 330 261
0.013442807 0.69700003 -0.025663542 1.2083796e-38 331 261
0.01468592 0.69800001 -0.025700359 1.1990882e-38 332 261
0.015955333 0.69999999 -0.025773998 1.1806489e-38 333 261
0.017207211 0.70099998 -0.025810819 1.1713569e-38 334 261
0.018515198 0.704 -0.02592128 1.1990514e-38 335 261
0.019805651 0.70599997 -0.025994917 1.2634436e-38 336 261
0.021073313 0.70700002 -0.02603174 1.3002859e-38 337 261
0.022344479 0.708 -0.026068559 1.3370905e-38 338 261
0.023652466 0.70999998 -0.026142199 1.7888491e-38 339 261
0.024932399 0.71100003 -0.026179021 2.0560351e-38 340 261
0.026179021 0.71100003 -0.026179021 2.2035481e-38 341 261
-0.038645219 0.71100003 -0.027425639 2.2957079e-38 289 262
-0.037345998 0.70999998 -0.027387066 1.8897949e-38 290 262
-0.03599944 0.708 -0.027309919 1.3827549e-38 291 262
-0.034708988 0.70700002 -0.027271347 1.6396795e-38 292 262
-0.033469379 0.70700002 -0.027271347 1.7226916e-38 293 262
-0.032184184 0.70599997 -0.027232772 1.5108577e-38 294 262
-0.030858666 0.704 -0.027155625 1.6584066e-38 295 262
-0.029582238 0.70300001 -0.027117053 1.6492586e-38 296 262
-0.028268991 0.70099998 -0.027039904 1.4740871e-38 297 262
-0.027001332 0.69999999 -0.027001332 1.4818301e-38 298 262
-0.025700359 0.69800001 -0.026924185 1.2144628e-38 299 262
-0.024476532 0.69800001 -0.026924185 1.3791549e-38 300 262
-0.023219392 0.69700003 -0.026885614 1.3699353e-38 301 262
-0.021965759 0.69599998 -0.026847038 1.4247135e-38 302 262
-0.020745439 0.69599998 -0.026847038 1.4247135e-38 303 262
-0.019525118 0.69599998 -0.026847038 1.2397851e-38 304 262
-0.0182522 0.69400001 -0.026769891 1.5347394e-38 305 262
-0.017035386 0.69400001 -0.026769891 1.6592014e-38 306 262
-0.015818574 0.69400001 -0.026769891 1.7882753e-38 307 262
-0.014580719 0.69300002 -0.02673132 1.5221691e-38 308 262
-0.01336566 0.69300002 -0.02673132 1.4484126e-38 309 262
-0.012150601 0.69300002 -0.02673132 1.3101191e-38 310 262
-0.010935539 0.69300002 -0.02673132 1.1810452e-38 311 262
-0.0096924258 0.69099998 -0.026654173 1.1349831e-38 312 262
-0.008480873 0.69099998 -0.026654173 1.1810808e-38 313 262
-0.0072903596 0.69300002 -0.02673132 1.2728815e-38 314 262
-0.0060753003 0.69300002 -0.02673132 1.2636619e-38 315 262
-0.0048462129 0.69099998 -0.026654173 1.2084172e-38 316 262
-0.0036346598 0.69099998 -0.026654173 1.2268563e-38 317 262
-0.00243012 0.69300002 -0.02673132 1.2267843e-38 318 262
-0.00121506 0.69300002 -0.02673132 1.2175288e-38 319 262
0 0.69300002 -0.02673132 1.2174569e-38 320 262
0.00121506 0.69300002 -0.02673132 1.2543352e-38 321 262
0.00243012 0.69300002 -0.02673132 1.0705926e-38 322 262
0.0036504399 0.69400001 -0.026769891 9.8761638e-39 323 262
0.0048672534 0.69400001 -0.026769891 9.9698028e-39 324 262
0.0060840664 0.69400001 -0.026769891 1.0522977e-38 325 262
0.0073008798 0.69400001 -0.026769891 1.1441676e-38 326 262
0.0085422397 0.69599998 -0.026847038 1.1441676e-38 327 262
0.0097625591 0.69599998 -0.026847038 1.2175992e-38 328 262
0.01099866 0.69700003 -0.026885614 1.2175992e-38 329 262
0.012220734 0.69700003 -0.026885614 1.2175273e-38 330 262
0.013462093 0.69800001 -0.026924185 1.2083077e-38 331 262
0.014727999 0.69999999 -0.027001332 1.2266743e-38 332 262
0.015978126 0.70099998 -0.027039904 1.2174547e-38 333 262
0.017256306 0.70300001 -0.027117053 1.1622808e-38 334 262
0.018567799 0.70599997 -0.027232772 1.1622808e-38 335 262
0.019805651 0.70599997 -0.027232772 1.2450768e-38 336 262
0.021073313 0.70700002 -0.027271347 1.2911746e-38 337 262
0.022344479 0.708 -0.027309919 1.3003562e-38 338 262
0.023652466 0.70999998 -0.027387066 1.7613344e-38 339 262
0.024932399 0.71100003 -0.027425639 2.0653266e-38 340 262
0.026179021 0.71100003 -0.027425639 2.2220592e-38 341 262
-0.040060159 0.71399999 -0.028793238 2.2496104e-38 288 263
-0.038645219 0.71100003 -0.028672259 2.2957079e-38 289 263
-0.037345998 0.70999998 -0.028631933 1.9542599e-38 290 263
-0.03599944 0.708 -0.02855128 1.4748427e-38 291 263
-0.034758076 0.708 -0.02855128 1.685741e-38 292 263
-0.033469379 0.70700002 -0.028510952 1.6764856e-38 293 263
-0.032184184 0.70599997 -0.028470624 1.4091188e-38 294 263
-0.030946331 0.70599997 -0.028470624 1.6672307e-38 295 263
-0.029624319 0.704 -0.028389972 1.7046134e-38 296 263
-0.028349647 0.70300001 -0.028349647 1.5478807e-38 297 263
-0.027117053 0.70300001 -0.028349647 1.4828397e-38 298 263
-0.025773998 0.69999999 -0.028228667 1.4551809e-38 299 263
-0.024476532 0.69800001 -0.028148014 1.436381e-38 300 263
-0.023219392 0.69700003 -0.028107686 1.3626244e-38 301 263
-0.02199732 0.69700003 -0.028107686 1.4345454e-38 302 263
-0.020775247 0.69700003 -0.028107686 1.2869965e-38 303 263
-0.019553173 0.69700003 -0.028107686 1.2673717e-38 304 263
-0.018304799 0.69599998 -0.028067358 1.4978967e-38 305 263
-0.017035386 0.69400001 -0.027986705 1.6683131e-38 306 263
-0.015818574 0.69400001 -0.027986705 1.8066065e-38 307 263
-0.01460176 0.69400001 -0.027986705 1.5039098e-38 308 263
-0.013384946 0.69400001 -0.027986705 1.4209337e-38 309 263
-0.012168133 0.69400001 -0.027986705 1.3651845e-38 310 263
-0.010935539 0.69300002 -0.027946379 1.2914278e-38 311 263
-0.0097204801 0.69300002 -0.027946379 1.1902284e-38 312 263
-0.0085054198 0.69300002 -0.027946379 1.2178513e-38 313 263
-0.0072903596 0.69300002 -0.027946379 1.2362554e-38 314 263
-0.0060753003 0.69300002 -0.027946379 1.2270358e-38 315 263
-0.00486024 0.69300002 -0.027946379 1.2360758e-38 316 263
-0.0036451798 0.69300002 -0.027946379 1.254515e-38 317 263
-0.00243012 0.69300002 -0.027946379 1.2913562e-38 318 263
-0.00121506 0.69300002 -0.027946379 1.2728812e-38 319 263
0 0.69300002 -0.027946379 1.1712146e-38 320 263
0.00121506 0.69300002 -0.027946379 1.1712146e-38 321 263
0.0024336267 0.69400001 -0.027986705 1.0886717e-38 322 263
0.0036504399 0.69400001 -0.027986705 1.0518293e-38 323 263
0.0048672534 0.69400001 -0.027986705 9.4173507e-39 324 263
0.0060840664 0.69400001 -0.027986705 9.6021021e-39 325 263
0.0073219193 0.69599998 -0.028067358 1.0156342e-38 326 263
0.0085422397 0.69599998 -0.028067358 1.0617679e-38 327 263
0.0097765867 0.69700003 -0.028107686 1.1993401e-38 328 263
0.01099866 0.69700003 -0.028107686 1.1993401e-38 329 263
0.012238266 0.69800001 -0.028148014 1.2451855e-38 330 263
0.013462093 0.69800001 -0.028148014 1.2267824e-38 331 263
0.014727999 0.69999999 -0.028228667 1.2634802e-38 332 263
0.016023712 0.70300001 -0.028349647 1.2634802e-38 333 263
0.017256306 0.70300001 -0.028349647 1.2541885e-38 334 263
0.018515198 0.704 -0.028389972 1.2357492e-38 335 263
0.019805651 0.70599997 -0.028470624 1.190119e-38 336 263
0.021073313 0.70700002 -0.028510952 1.2085581e-38 337 263
0.022344479 0.708 -0.02855128 1.282025e-38 338 263
0.023652466 0.70999998 -0.028631933 1.7430031e-38 339 263
0.025002534 0.713 -0.028752912 2.1113525e-38 340 263
0.026252659 0.713 -0.028752912 2.2219513e-38 341 263
-0.039891839 0.71100003 -0.029918881 2.249646e-38 288 264
-0.038645219 0.71100003 -0.029918881 2.2957078e-38 289 264
-0.037345998 0.70999998 -0.029876797 1.9819915e-38 290 264
-0.03599944 0.708 -0.02979264 1.5855503e-38 291 264
-0.034758076 0.708 -0.02979264 1.6953569e-38 292 264
-0.033516716 0.708 -0.02979264 1.5478439e-38 293 264
-0.032229774 0.70700002 -0.029750559 1.3345709e-38 294 264
-0.030946331 0.70599997 -0.029708479 1.5374371e-38 295 264
-0.029624319 0.704 -0.029624319 1.6675183e-38 296 264
-0.028349647 0.70300001 -0.029582238 1.6306402e-38 297 264
-0.027117053 0.70300001 -0.029582238 1.5479885e-38 298 264
-0.025773998 0.69999999 -0.029455997 1.6033057e-38 299 264
-0.024476532 0.69800001 -0.029371841 1.5665364e-38 300 264
-0.023219392 0.69700003 -0.02932976 1.5480972e-38 301 264
-0.02199732 0.69700003 -0.02932976 1.4268745e-38 302 264
-0.020775247 0.69700003 -0.02932976 1.0119583e-38 303 264
-0.019581227 0.69800001 -0.029371841 1.2765203e-38 304 264
-0.018331099 0.69700003 -0.02932976 1.5346322e-38 305 264
-0.017084479 0.69599998 -0.029287677 1.6774608e-38 306 264
-0.015818574 0.69400001 -0.029203519 1.8065346e-38 307 264
-0.01460176 0.69400001 -0.029203519 1.5314609e-38 308 264
-0.013384946 0.69400001 -0.029203519 1.4577044e-38 309 264
-0.012168133 0.69400001 -0.029203519 1.3653292e-38 310 264
-0.01095132 0.69400001 -0.029203519 1.3007923e-38 311 264
-0.0097345067 0.69400001 -0.029203519 1.2731333e-38 312 264
-0.0085176928 0.69400001 -0.029203519 1.2731333e-38 313 264
-0.0073008798 0.69400001 -0.029203519 1.2547668e-38 314 264
-0.0060840664 0.69400001 -0.029203519 1.2363275e-38 315 264
-0.0048672534 0.69400001 -0.029203519 1.2362556e-38 316 264
-0.0036451798 0.69300002 -0.029161438 1.2546948e-38 317 264
-0.00243012 0.69300002 -0.029161438 1.3283065e-38 318 264
-0.00121506 0.69300002 -0.029161438 1.3190869e-38 319 264
0 0.69400001 -0.029203519 1.0976748e-38 320 264
0.0012168133 0.69400001 -0.029203519 9.686009e-39 321 264
0.0024336267 0.69400001 -0.029203519 9.9636903e-39 322 264
0.0036504399 0.69400001 -0.029203519 1.0148083e-38 323 264
0.0048672534 0.69400001 -0.029203519 9.7828934e-39 324 264
0.0061015999 0.69599998 -0.029287677 9.7828934e-39 325 264
0.0073219193 0.69599998 -0.029287677 1.0246017e-38 326 264
0.0085422397 0.69599998 -0.029287677 1.0983582e-38 327 264
0.0097765867 0.69700003 -0.02932976 1.1993401e-38 328 264
0.01101444 0.69800001 -0.029371841 1.1993401e-38 329 264
0.012238266 0.69800001 -0.029371841 1.226854e-38 330 264
0.013500666 0.69999999 -0.029455997 1.226854e-38 331 264
0.014749039 0.70099998 -0.029498078 1.2543683e-38 332 264
0.016023712 0.70300001 -0.029582238 1.2820269e-38 333 264
0.017256306 0.70300001 -0.029582238 1.3003942e-38 334 264
0.018515198 0.704 -0.029624319 1.2727354e-38 335 264
0.019805651 0.70599997 -0.029708479 1.2451843e-38 336 264
0.021073313 0.70700002 -0.029750559 1.2544038e-38 337 264
0.022344479 0.708 -0.02979264 1.3187958e-38 338 264
0.023652466 0.70999998 -0.029876797 1.7889935e-38 339 264
0.025002534 0.713 -0.030003037 2.1206086e-38 340 264
0.026252659 0.713 -0.030003037 2.1851456e-38 341 264
-0.040060159 0.71399999 -0.031296998 2.249646e-38 288 265
-0.038753927 0.713 -0.031253166 2.3141826e-38 289 265
-0.037345998 0.70999998 -0.031121666 1.926746e-38 290 265
-0.036101133 0.70999998 -0.031121666 1.5026463e-38 291 265
-0.034856264 0.70999998 -0.031121666 1.6588752e-38 292 265
-0.033516716 0.708 -0.031034 1.5205459e-38 293 265
-0.032229774 0.70700002 -0.030990168 1.4728649e-38 294 265
-0.030946331 0.70599997 -0.030946331 1.3806332e-38 295 265
-0.029624319 0.704 -0.030858666 1.4266594e-38 296 265
-0.028349647 0.70300001 -0.030814834 1.6387094e-38 297 265
-0.027117053 0.70300001 -0.030814834 1.4834162e-38 298 265
-0.025810819 0.70099998 -0.030727165 1.5479532e-38 299 265
-0.024546666 0.69999999 -0.030683333 1.5022518e-38 300 265
-0.023252707 0.69800001 -0.030595668 1.5667887e-38 301 265
-0.02199732 0.69700003 -0.030551834 1.3997563e-38 302 265
-0.020775247 0.69700003 -0.030551834 9.2033906e-39 303 265
-0.019581227 0.69800001 -0.030595668 1.2949957e-38 304 265
-0.018331099 0.69700003 -0.030551834 1.5254489e-38 305 265
-0.017109027 0.69700003 -0.030551834 1.695792e-38 306 265
-0.015864158 0.69599998 -0.030507999 1.8340854e-38 307 265
-0.014643839 0.69599998 -0.030507999 1.5406088e-38 308 265
-0.013423519 0.69599998 -0.030507999 1.4760719e-38 309 265
-0.012168133 0.69400001 -0.030420333 1.3378153e-38 310 265
-0.01095132 0.69400001 -0.030420333 1.2087414e-38 311 265
-0.0097345067 0.69400001 -0.030420333 1.1719352e-38 312 265
-0.0085176928 0.69400001 -0.030420333 1.218033e-38 313 265
-0.0073008798 0.69400001 -0.030420333 1.2364358e-38 314 265
-0.0060840664 0.69400001 -0.030420333 1.2179607e-38 315 265
-0.0048672534 0.69400001 -0.030420333 1.2637348e-38 316 265
-0.0036504399 0.69400001 -0.030420333 1.2913576e-38 317 265
-0.0024336267 0.69400001 -0.030420333 1.3097602e-38 318 265
-0.0012168133 0.69400001 -0.030420333 1.3097602e-38 319 265
0 0.69400001 -0.030420333 1.2362909e-38 320 265
0.0012203199 0.69599998 -0.030507999 1.153279e-38 321 265
0.0024406398 0.69599998 -0.030507999 1.1806866e-38 322 265
0.0036609597 0.69599998 -0.030507999 1.171467e-38 323 265
0.0048812795 0.69599998 -0.030507999 1.1437726e-38 324 265
0.0061015999 0.69599998 -0.030507999 1.134553e-38 325 265
0.00733244 0.69700003 -0.030551834 1.162427e-38 326 265
0.0085545136 0.69700003 -0.030551834 1.1993051e-38 327 265
0.0097765867 0.69700003 -0.030551834 1.2083443e-38 328 265
0.01101444 0.69800001 -0.030595668 1.2083443e-38 329 265
0.012238266 0.69800001 -0.030595668 1.1993754e-38 330 265
0.013500666 0.69999999 -0.030683333 1.208595e-38 331 265
0.014791119 0.70300001 -0.030814834 1.2361092e-38 332 265
0.016046507 0.704 -0.030858666 1.2453289e-38 333 265
0.017280852 0.704 -0.030858666 1.2819914e-38 334 265
0.018567799 0.70599997 -0.030946331 1.2819914e-38 335 265
0.019833706 0.70700002 -0.030990168 1.2819546e-38 336 265
0.021073313 0.70700002 -0.030990168 1.3280525e-38 337 265
0.022344479 0.708 -0.031034 1.4015919e-38 338 265
0.023652466 0.70999998 -0.031121666 1.7980691e-38 339 265
0.025037598 0.71399999 -0.031296998 2.092986e-38 340 265
0.026289478 0.71399999 -0.031296998 2.1667425e-38 341 265
-0.040060159 0.71399999 -0.032548878 2.2771965e-38 288 266
-0.038753927 0.713 -0.032503292 2.3325138e-38 289 266
-0.037398599 0.71100003 -0.032412119 1.8991228e-38 290 266
-0.036101133 0.70999998 -0.032366529 1.4197055e-38 291 266
-0.034856264 0.70999998 -0.032366529 1.5761152e-38 292 266
-0.033516716 0.708 -0.03227536 1.5577121e-38 293 266
-0.03227536 0.708 -0.03227536 1.5379419e-38 294 266
-0.030990168 0.70700002 -0.032229774 1.3628062e-38 295 266
-0.029708479 0.70599997 -0.032184184 1.3334924e-38 296 266
-0.028389972 0.704 -0.032093015 1.3796263e-38 297 266
-0.027117053 0.70300001 -0.032047424 1.3992528e-38 298 266
-0.025810819 0.70099998 -0.031956252 1.5191072e-38 299 266
-0.024546666 0.69999999 -0.031910665 1.4922048e-38 300 266
-0.023252707 0.69800001 -0.031819493 1.6581209e-38 301 266
-0.02202888 0.69800001 -0.031819493 1.5649892e-38 302 266
-0.020805053 0.69800001 -0.031819493 1.0856079e-38 303 266
-0.019581227 0.69800001 -0.031819493 1.3040715e-38 304 266
-0.0183574 0.69800001 -0.031819493 1.4883191e-38 305 266
-0.017109027 0.69700003 -0.03177391 1.7050118e-38 306 266
-0.015886955 0.69700003 -0.03177391 1.8525248e-38 307 266
-0.014643839 0.69599998 -0.031728316 1.531389e-38 308 266
-0.013423519 0.69599998 -0.031728316 1.466852e-38 309 266
-0.0122032 0.69599998 -0.031728316 1.3470349e-38 310 266
-0.010982879 0.69599998 -0.031728316 1.2087414e-38 311 266
-0.0097345067 0.69400001 -0.031637147 1.1441689e-38 312 266
-0.0085176928 0.69400001 -0.031637147 1.2087058e-38 313 266
-0.0073008798 0.69400001 -0.031637147 1.2087414e-38 314 266
-0.0061015999 0.69599998 -0.031728316 1.199486e-38 315 266
-0.0048812795 0.69599998 -0.031728316 1.2177456e-38 316 266
-0.0036504399 0.69400001 -0.031637147 1.2177456e-38 317 266
-0.0024336267 0.69400001 -0.031637147 1.2729911e-38 318 266
-0.0012203199 0.69599998 -0.031728316 1.3006857e-38 319 266
0 0.69599998 -0.031728316 1.3100474e-38 320 266
0.0012220733 0.69700003 -0.03177391 1.2731333e-38 321 266
0.0024406398 0.69599998 -0.031728316 1.2361109e-38 322 266
0.0036609597 0.69599998 -0.031728316 1.1900131e-38 323 266
0.0048812795 0.69599998 -0.031728316 1.1989811e-38 324 266
0.0061103669 0.69700003 -0.03177391 1.2173843e-38 325 266
0.00733244 0.69700003 -0.03177391 1.1993048e-38 326 266
0.0085545136 0.69700003 -0.03177391 1.1900852e-38 327 266
0.0097765867 0.69700003 -0.03177391 1.1625342e-38 328 266
0.01101444 0.69800001 -0.031819493 1.1717537e-38 329 266
0.012273333 0.69999999 -0.031910665 1.1902279e-38 330 266
0.013519952 0.70099998 -0.031956252 1.1902279e-38 331 266
0.014812159 0.704 -0.032093015 1.2269615e-38 332 266
0.016092092 0.70599997 -0.032184184 1.2361812e-38 333 266
0.017329946 0.70599997 -0.032184184 1.227034e-38 334 266
0.018594101 0.70700002 -0.032229774 1.227034e-38 335 266
0.019833706 0.70700002 -0.032229774 1.3372367e-38 336 266
0.021103119 0.708 -0.03227536 1.374151e-38 337 266
0.022407599 0.70999998 -0.032366529 1.3925523e-38 338 266
0.023752406 0.713 -0.032503292 1.7613346e-38 339 266
0.025037598 0.71399999 -0.032548878 2.1020969e-38 340 266
0.026289478 0.71399999 -0.032548878 2.2035481e-38 341 266
-0.040060159 0.71399999 -0.033800758 2.2588655e-38 288 267
-0.038808275 0.71399999 -0.033800758 2.323402e-38 289 267
-0.037503798 0.713 -0.033753417 1.9359653e-38 290 267
-0.036151983 0.71100003 -0.033658739 1.4197058e-38 291 267
-0.034856264 0.70999998 -0.033611398 1.659127e-38 292 267
-0.033611398 0.70999998 -0.033611398 1.6683466e-38 293 267
-0.03227536 0.708 -0.033516716 1.4553255e-38 294 267
-0.030990168 0.70700002 -0.033469379 1.2894093e-38 295 267
-0.029708479 0.70599997 -0.033422034 1.4539584e-38 296 267
-0.028389972 0.704 -0.03332736 1.1958107e-38 297 267
-0.027117053 0.70300001 -0.033280019 1.3327722e-38 298 267
-0.025810819 0.70099998 -0.03318534 1.314333e-38 299 267
-0.024581732 0.70099998 -0.03318534 1.3610054e-38 300 267
-0.023252707 0.69800001 -0.033043321 1.4900793e-38 301 267
-0.02202888 0.69800001 -0.033043321 1.4802123e-38 302 267
-0.020805053 0.69800001 -0.033043321 1.4249308e-38 303 267
-0.019581227 0.69800001 -0.033043321 1.3500612e-38 304 267
-0.0183574 0.69800001 -0.033043321 1.5159775e-38 305 267
-0.017133573 0.69800001 -0.033043321 1.7142317e-38 306 267
-0.015909746 0.69800001 -0.033043321 1.8617448e-38 307 267
-0.01466488 0.69700003 -0.03299598 1.5314612e-38 308 267
-0.013442807 0.69700003 -0.03299598 1.4577047e-38 309 267
-0.0122032 0.69599998 -0.032948639 1.374514e-38 310 267
-0.010982879 0.69599998 -0.032948639 1.2546599e-38 311 267
-0.0097625591 0.69599998 -0.032948639 1.1350575e-38 312 267
-0.0085422397 0.69599998 -0.032948639 1.1903749e-38 313 267
-0.0073219193 0.69599998 -0.032948639 1.1903746e-38 314 267
-0.0061015999 0.69599998 -0.032948639 1.1719355e-38 315 267
-0.0048812795 0.69599998 -0.032948639 1.1809032e-38 316 267
-0.0036609597 0.69599998 -0.032948639 1.208526e-38 317 267
-0.0024406398 0.69599998 -0.032948639 1.2732062e-38 318 267
-0.0012220733 0.69700003 -0.03299598 1.2639866e-38 319 267
0 0.69700003 -0.03299598 1.2272159e-38 320 267
0.0012220733 0.69700003 -0.03299598 1.1903017e-38 321 267
0.0024441467 0.69700003 -0.03299598 1.2729894e-38 322 267
0.00366622 0.69700003 -0.03299598 1.3098677e-38 323 267
0.0048882933 0.69700003 -0.03299598 1.281849e-38 324 267
0.0061103669 0.69700003 -0.03299598 1.2634099e-38 325 267
0.0073429602 0.69800001 -0.033043321 1.1715383e-38 326 267
0.0085667865 0.69800001 -0.033043321 1.1623186e-38 327 267
0.0097906133 0.69800001 -0.033043321 1.1074689e-38 328 267
0.011045999 0.69999999 -0.033137999 1.1535307e-38 329 267
0.012273333 0.69999999 -0.033137999 1.263697e-38 330 267
0.013558527 0.70300001 -0.033280019 1.263697e-38 331 267
0.014812159 0.704 -0.03332736 1.2178147e-38 332 267
0.016092092 0.70599997 -0.033422034 1.208595e-38 333 267
0.017329946 0.70599997 -0.033422034 1.1810086e-38 334 267
0.0186204 0.708 -0.033516716 1.217851e-38 335 267
0.019917866 0.70999998 -0.033611398 1.3464565e-38 336 267
0.021162732 0.70999998 -0.033611398 1.3741154e-38 337 267
0.022439159 0.71100003 -0.033658739 1.383333e-38 338 267
0.023752406 0.713 -0.033753417 1.7613349e-38 339 267
0.025037598 0.71399999 -0.033800758 2.1388317e-38 340 267
0.026289478 0.71399999 -0.033800758 2.25865e-38 341 267
-0.040060159 0.71399999 -0.035052639 2.2771967e-38 288 268
-0.038808275 0.71399999 -0.035052639 2.3325138e-38 289 268
-0.037503798 0.713 -0.035003547 1.9730231e-38 290 268
-0.036151983 0.71100003 -0.034905359 1.5028253e-38 291 268
-0.034905359 0.71100003 -0.034905359 1.6317201e-38 292 268
-0.033611398 0.70999998 -0.034856264 1.7239156e-38 293 268
-0.03227536 0.708 -0.034758076 1.5296938e-38 294 268
-0.030990168 0.70700002 -0.034708988 1.2438872e-38 295 268
-0.029750559 0.70700002 -0.034708988 1.4548223e-38 296 268
-0.028389972 0.704 -0.034561705 1.4087245e-38 297 268
-0.027117053 0.70300001 -0.034512613 1.1508992e-38 298 268
-0.025884461 0.70300001 -0.034512613 1.0033502e-38 299 268
-0.024581732 0.70099998 -0.034414422 1.2594431e-38 300 268
-0.023319334 0.69999999 -0.034365334 1.2318204e-38 301 268
-0.022091998 0.69999999 -0.034365334 1.3416989e-38 302 268
-0.020864666 0.69999999 -0.034365334 1.4523336e-38 303 268
-0.019637333 0.69999999 -0.034365334 1.3133625e-38 304 268
-0.018409999 0.69999999 -0.034365334 1.4977179e-38 305 268
-0.017133573 0.69800001 -0.034267146 1.695757e-38 306 268
-0.015909746 0.69800001 -0.034267146 1.8801482e-38 307 268
-0.01468592 0.69800001 -0.034267146 1.540681e-38 308 268
-0.013462093 0.69800001 -0.034267146 1.4576691e-38 309 268
-0.012220734 0.69700003 -0.034218054 1.3745861e-38 310 268
-0.01099866 0.69700003 -0.034218054 1.2178535e-38 311 268
-0.0097625591 0.69599998 -0.034168959 1.1073632e-38 312 268
-0.0085422397 0.69599998 -0.034168959 1.1811197e-38 313 268
-0.0073219193 0.69599998 -0.034168959 1.1627882e-38 314 268
-0.0061103669 0.69700003 -0.034218054 1.1627882e-38 315 268
-0.0048882933 0.69700003 -0.034218054 1.1719352e-38 316 268
-0.00366622 0.69700003 -0.034218054 1.1903743e-38 317 268
-0.0024441467 0.69700003 -0.034218054 1.1443841e-38 318 268
-0.0012238267 0.69800001 -0.034267146 1.1628232e-38 319 268
0 0.69800001 -0.034267146 1.2822457e-38 320 268
0.0012238267 0.69800001 -0.034267146 1.2638064e-38 321 268
0.0024441467 0.69700003 -0.034218054 1.300756e-38 322 268
0.00366622 0.69700003 -0.034218054 1.3191591e-38 323 268
0.0048882933 0.69700003 -0.034218054 1.2543704e-38 324 268
0.006119133 0.69800001 -0.034267146 1.2082727e-38 325 268
0.0073429602 0.69800001 -0.034267146 1.1164366e-38 326 268
0.0085667865 0.69800001 -0.034267146 1.171754e-38 327 268
0.0098186666 0.69999999 -0.034365334 1.2085241e-38 328 268
0.011045999 0.69999999 -0.034365334 1.2085241e-38 329 268
0.012290866 0.70099998 -0.034414422 1.2360742e-38 330 268
0.013577812 0.704 -0.034561705 1.2360742e-38 331 268
0.014812159 0.704 -0.034561705 1.2360742e-38 332 268
0.016092092 0.70599997 -0.034659892 1.2452939e-38 333 268
0.017354494 0.70700002 -0.034708988 1.263697e-38 334 268
0.0186204 0.708 -0.034758076 1.3006111e-38 335 268
0.019917866 0.70999998 -0.034856264 1.3098305e-38 336 268
0.021162732 0.70999998 -0.034856264 1.2821717e-38 337 268
0.022439159 0.71100003 -0.034905359 1.2822418e-38 338 268
0.02378572 0.71399999 -0.035052639 1.6971221e-38 339 268
0.025037598 0.71399999 -0.035052639 2.1204646e-38 340 268
0.026289478 0.71399999 -0.035052639 2.2403188e-38 341 268
-0.040060159 0.71399999 -0.036304519 2.2679772e-38 288 269
-0.038808275 0.71399999 -0.036304519 2.2956359e-38 289 269
-0.037556399 0.71399999 -0.036304519 2.0191937e-38 290 269
-0.036253672 0.713 -0.036253672 1.7241318e-38 291 269
-0.034905359 0.71100003 -0.036151983 1.6873988e-38 292 269
-0.033611398 0.70999998 -0.036101133 1.6597399e-38 293 269
-0.03227536 0.708 -0.03599944 1.6225374e-38 294 269
-0.031034 0.708 -0.03599944 1.4566212e-38 295 269
-0.029750559 0.70700002 -0.035948593 1.6307866e-38 296 269
-0.028389972 0.704 -0.035796054 1.76908e-38 297 269
-0.027117053 0.70300001 -0.035745207 1.4478343e-38 298 269
-0.025884461 0.70300001 -0.035745207 1.3280159e-38 299 269
-0.024581732 0.70099998 -0.035643511 1.4829104e-38 300 269
-0.023352645 0.70099998 -0.035643511 1.1510061e-38 301 269
-0.022091998 0.69999999 -0.035592664 1.2690942e-38 302 269
-0.020864666 0.69999999 -0.035592664 1.167715e-38 303 269
-0.019637333 0.69999999 -0.035592664 1.184682e-38 304 269
-0.018409999 0.69999999 -0.035592664 1.3505982e-38 305 269
-0.017133573 0.69800001 -0.035490975 1.658986e-38 306 269
-0.015909746 0.69800001 -0.035490975 1.8433772e-38 307 269
-0.01468592 0.69800001 -0.035490975 1.5314258e-38 308 269
-0.013462093 0.69800001 -0.035490975 1.4668889e-38 309 269
-0.012238266 0.69800001 -0.035490975 1.3562911e-38 310 269
-0.01099866 0.69700003 -0.035440128 1.1903749e-38 311 269
-0.0097765867 0.69700003 -0.035440128 1.1626087e-38 312 269
-0.0085545136 0.69700003 -0.035440128 1.2179259e-38 313 269
-0.00733244 0.69700003 -0.035440128 1.172152e-38 314 269
-0.006119133 0.69800001 -0.035490975 1.172152e-38 315 269
-0.0048953067 0.69800001 -0.035490975 1.1721873e-38 316 269
-0.0036714801 0.69800001 -0.035490975 1.1721873e-38 317 269
-0.0024476533 0.69800001 -0.035490975 1.1167977e-38 318 269
-0.0012238267 0.69800001 -0.035490975 1.1536759e-38 319 269
0 0.69800001 -0.035490975 1.2825332e-38 320 269
0.0012238267 0.69800001 -0.035490975 1.2640582e-38 321 269
0.0024476533 0.69800001 -0.035490975 1.2640217e-38 322 269
0.0036714801 0.69800001 -0.035490975 1.2548021e-38 323 269
0.0048953067 0.69800001 -0.035490975 1.2913925e-38 324 269
0.006119133 0.69800001 -0.035490975 1.2545503e-38 325 269
0.0073639993 0.69999999 -0.035592664 1.2268909e-38 326 269
0.0085913334 0.69999999 -0.035592664 1.2638052e-38 327 269
0.0098186666 0.69999999 -0.035592664 1.2911759e-38 328 269
0.011061779 0.70099998 -0.035643511 1.2635531e-38 329 269
0.012325933 0.70300001 -0.035745207 1.226819e-38 330 269
0.013577812 0.704 -0.035796054 1.2360386e-38 331 269
0.014854239 0.70599997 -0.035897743 1.2544407e-38 332 269
0.016114887 0.70700002 -0.035948593 1.2820995e-38 333 269
0.017379038 0.708 -0.03599944 1.2913547e-38 334 269
0.018672999 0.70999998 -0.036101133 1.2913547e-38 335 269
0.01994592 0.71100003 -0.036151983 1.2270693e-38 336 269
0.021192541 0.71100003 -0.036151983 1.1625323e-38 337 269
0.022502279 0.713 -0.036253672 1.2268875e-38 338 269
0.02378572 0.71399999 -0.036304519 1.7155242e-38 339 269
0.025037598 0.71399999 -0.036304519 2.1205002e-38 340 269
0.026289478 0.71399999 -0.036304519 2.2310989e-38 341 269
-0.040060159 0.71399999 -0.037556399 2.2588655e-38 288 270
-0.038808275 0.71399999 -0.037556399 2.2680851e-38 289 270
-0.037503798 0.713 -0.037503798 2.10199e-38 290 270
-0.036151983 0.71100003 -0.037398599 1.8530618e-38 291 270
-0.034905359 0.71100003 -0.037398599 1.6782517e-38 292 270
-0.033611398 0.70999998 -0.037345998 1.5860562e-38 293 270
-0.03227536 0.708 -0.0372408 1.4850003e-38 294 270
-0.031034 0.708 -0.0372408 1.4850003e-38 295 270
-0.029750559 0.70700002 -0.037188202 1.6502337e-38 296 270
-0.028389972 0.704 -0.037030395 1.6778924e-38 297 270
-0.027117053 0.70300001 -0.036977798 1.5032611e-38 298 270
-0.025884461 0.70300001 -0.036977798 1.4295046e-38 299 270
-0.024651866 0.70300001 -0.036977798 1.5582173e-38 300 270
-0.023352645 0.70099998 -0.036872596 1.5121195e-38 301 270
-0.022091998 0.69999999 -0.036819998 1.4741587e-38 302 270
-0.020864666 0.69999999 -0.036819998 1.2160468e-38 303 270
-0.019665385 0.70099998 -0.036872596 1.0758469e-38 304 270
-0.018409999 0.69999999 -0.036819998 1.094286e-38 305 270
-0.017182667 0.69999999 -0.036819998 1.5763693e-38 306 270
-0.015955333 0.69999999 -0.036819998 1.7884552e-38 307 270
-0.01468592 0.69800001 -0.0367148 1.5499006e-38 308 270
-0.013462093 0.69800001 -0.0367148 1.4668886e-38 309 270
-0.012238266 0.69800001 -0.0367148 1.3012256e-38 310 270
-0.01101444 0.69800001 -0.0367148 1.1445289e-38 311 270
-0.0097906133 0.69800001 -0.0367148 1.2271454e-38 312 270
-0.0085667865 0.69800001 -0.0367148 1.273243e-38 313 270
-0.0073429602 0.69800001 -0.0367148 1.1814068e-38 314 270
-0.006119133 0.69800001 -0.0367148 1.1721873e-38 315 270
-0.0049093333 0.69999999 -0.036819998 1.2179257e-38 316 270
-0.0036714801 0.69800001 -0.0367148 1.2087061e-38 317 270
-0.0024476533 0.69800001 -0.0367148 1.1811553e-38 318 270
-0.0012238267 0.69800001 -0.0367148 1.1811553e-38 319 270
0 0.69800001 -0.0367148 1.1539274e-38 320 270
0.0012238267 0.69800001 -0.0367148 1.1263046e-38 321 270
0.0024476533 0.69800001 -0.0367148 1.2179244e-38 322 270
0.0036714801 0.69800001 -0.0367148 1.1994494e-38 323 270
0.0048953067 0.69800001 -0.0367148 1.2454752e-38 324 270
0.0061366665 0.69999999 -0.036819998 1.2454752e-38 325 270
0.0073639993 0.69999999 -0.036819998 1.2362907e-38 326 270
0.0085913334 0.69999999 -0.036819998 1.2178515e-38 327 270
0.0098326923 0.70099998 -0.036872596 1.2820645e-38 328 270
0.011061779 0.70099998 -0.036872596 1.2636254e-38 329 270
0.012325933 0.70300001 -0.036977798 1.2084878e-38 330 270
0.013616386 0.70599997 -0.037135597 1.1900487e-38 331 270
0.01487528 0.70700002 -0.037188202 1.1622455e-38 332 270
0.01613768 0.708 -0.0372408 1.1898682e-38 333 270
0.017379038 0.708 -0.0372408 1.0888124e-38 334 270
0.0186993 0.71100003 -0.037398599 1.1625689e-38 335 270
0.01994592 0.71100003 -0.037398599 1.1350534e-38 336 270
0.021252153 0.713 -0.037503798 1.1165783e-38 337 270
0.022533838 0.71399999 -0.037556399 1.3095039e-38 338 270
0.023852346 0.71600002 -0.037661601 1.8257994e-38 339 270
0.025107734 0.71600002 -0.037661601 2.1756737e-38 340 270
0.026363119 0.71600002 -0.037661601 2.2402106e-38 341 270
-0.038808275 0.71399999 -0.038808275 2.3048554e-38 289 271
-0.037503798 0.713 -0.038753927 2.0928426e-38 290 271
-0.036151983 0.71100003 -0.038645219 1.8531341e-38 291 271
-0.034905359 0.71100003 -0.038645219 1.6414451e-38 292 271
-0.033611398 0.70999998 -0.038590867 1.5953832e-38 293 271
-0.03227536 0.708 -0.038482159 1.494292e-38 294 271
-0.031034 0.708 -0.038482159 1.4665974e-38 295 271
-0.029750559 0.70700002 -0.038427804 1.5585422e-38 296 271
-0.028470624 0.70599997 -0.038373452 1.5492867e-38 297 271
-0.027155625 0.704 -0.038264744 1.4389047e-38 298 271
-0.025884461 0.70300001 -0.038210396 1.41121e-38 299 271
-0.024651866 0.70300001 -0.038210396 1.5219173e-38 300 271
-0.023352645 0.70099998 -0.038101684 1.697089e-38 301 271
-0.022123558 0.70099998 -0.038101684 1.733606e-38 302 271
-0.020894472 0.70099998 -0.038101684 1.5584342e-38 303 271
-0.019665385 0.70099998 -0.038101684 1.2903095e-38 304 271
-0.018436298 0.70099998 -0.038101684 1.0597844e-38 305 271
-0.017182667 0.69999999 -0.038047329 1.4848573e-38 306 271
-0.015955333 0.69999999 -0.038047329 1.6600649e-38 307 271
-0.014727999 0.69999999 -0.038047329 1.5499003e-38 308 271
-0.013500666 0.69999999 -0.038047329 1.4669242e-38 309 271
-0.012238266 0.69800001 -0.037938625 1.3288476e-38 310 271
-0.01101444 0.69800001 -0.037938625 1.1813347e-38 311 271
-0.0097906133 0.69800001 -0.037938625 1.2089213e-38 312 271
-0.0085667865 0.69800001 -0.037938625 1.2549831e-38 313 271
-0.0073429602 0.69800001 -0.037938625 1.2271807e-38 314 271
-0.006119133 0.69800001 -0.037938625 1.1902664e-38 315 271
-0.0049093333 0.69999999 -0.038047329 1.1900876e-38 316 271
-0.0036714801 0.69800001 -0.037938625 1.1716483e-38 317 271
-0.0024476533 0.69800001 -0.037938625 1.1259098e-38 318 271
-0.0012273333 0.69999999 -0.038047329 1.1535687e-38 319 271
0 0.69800001 -0.037938625 1.1812266e-38 320 271
0.0012238267 0.69800001 -0.037938625 1.1259093e-38 321 271
0.0024476533 0.69800001 -0.037938625 1.1901945e-38 322 271
0.0036714801 0.69800001 -0.037938625 1.1901945e-38 323 271
0.0048953067 0.69800001 -0.037938625 1.190302e-38 324 271
0.0061366665 0.69999999 -0.038047329 1.2179607e-38 325 271
0.0073639993 0.69999999 -0.038047329 1.2823176e-38 326 271
0.0085913334 0.69999999 -0.038047329 1.2362556e-38 327 271
0.0098326923 0.70099998 -0.038101684 1.1902298e-38 328 271
0.01109334 0.70300001 -0.038210396 1.1533875e-38 329 271
0.012343466 0.704 -0.038264744 1.1165438e-38 330 271
0.013616386 0.70599997 -0.038373452 1.1072884e-38 331 271
0.01487528 0.70700002 -0.038427804 1.1252959e-38 332 271
0.01613768 0.708 -0.038482159 1.1160764e-38 333 271
0.017428132 0.70999998 -0.038590867 1.0887052e-38 334 271
0.0186993 0.71100003 -0.038645219 1.1624976e-38 335 271
0.020002026 0.713 -0.038753927 1.1809357e-38 336 271
0.021281958 0.71399999 -0.038808275 1.1809357e-38 337 271
0.022596961 0.71600002 -0.038916986 1.3372352e-38 338 271
0.023852346 0.71600002 -0.038916986 1.8258719e-38 339 271
0.0251428 0.71700001 -0.038971342 2.166562e-38 340 271
0.02639994 0.71700001 -0.038971342 2.2310989e-38 341 271
-0.038808275 0.71399999 -0.040060159 2.3049629e-38 289 272
-0.037556399 0.71399999 -0.040060159 2.0099386e-38 290 272
-0.036151983 0.71100003 -0.039891839 1.6872897e-38 291 272
-0.034905359 0.71100003 -0.039891839 1.5676885e-38 292 272
-0.033611398 0.70999998 -0.039835732 1.6322254e-38 293 272
-0.032366529 0.70999998 -0.039835732 1.5863434e-38 294 272
-0.031121666 0.70999998 -0.039835732 1.4848924e-38 295 272
-0.02979264 0.708 -0.039723519 1.4202851e-38 296 272
-0.028510952 0.70700002 -0.039667413 1.4571992e-38 297 272
-0.027232772 0.70599997 -0.039611302 1.4021705e-38 298 272
-0.02592128 0.704 -0.039499093 1.4021705e-38 299 272
-0.024651866 0.70300001 -0.039442986 1.3103361e-38 300 272
-0.023419274 0.70300001 -0.039442986 1.3472145e-38 301 272
-0.02218668 0.70300001 -0.039442986 1.4580291e-38 302 272
-0.020954086 0.70300001 -0.039442986 1.5594441e-38 303 272
-0.019721493 0.70300001 -0.039442986 1.5497908e-38 304 272
-0.018488899 0.70300001 -0.039442986 1.4391561e-38 305 272
-0.017207211 0.70099998 -0.039330769 1.4944381e-38 306 272
-0.015978126 0.70099998 -0.039330769 1.5681947e-38 307 272
-0.014727999 0.69999999 -0.039274666 1.5774515e-38 308 272
-0.013500666 0.69999999 -0.039274666 1.5036948e-38 309 272
-0.012273333 0.69999999 -0.039274666 1.3747287e-38 310 272
-0.01101444 0.69800001 -0.039162453 1.2733134e-38 311 272
-0.0097906133 0.69800001 -0.039162453 1.254839e-38 312 272
-0.0085667865 0.69800001 -0.039162453 1.3470346e-38 313 272
-0.0073429602 0.69800001 -0.039162453 1.2549115e-38 314 272
-0.0061366665 0.69999999 -0.039274666 1.2272529e-38 315 272
-0.0049093333 0.69999999 -0.039274666 1.2639513e-38 316 272
-0.0036819996 0.69999999 -0.039274666 1.2823904e-38 317 272
-0.0024546667 0.69999999 -0.039274666 1.2824979e-38 318 272
-0.0012273333 0.69999999 -0.039274666 1.2917176e-38 319 272
0 0.69800001 -0.039162453 1.300757e-38 320 272
0.0012238267 0.69800001 -0.039162453 1.23622e-38 321 272
0.0024476533 0.69800001 -0.039162453 1.2272159e-38 322 272
0.0036714801 0.69800001 -0.039162453 1.2364356e-38 323 272
0.0048953067 0.69800001 -0.039162453 1.1718983e-38 324 272
0.0061366665 0.69999999 -0.039274666 1.0612634e-38 325 272
0.0073639993 0.69999999 -0.039274666 9.4198562e-39 326 272
0.0086036054 0.70099998 -0.039330769 9.1429092e-39 327 272
0.0098607466 0.70300001 -0.039442986 6.2038145e-39 328 272
0.01109334 0.70300001 -0.039442986 5.9268675e-39 329 272
0.012343466 0.704 -0.039499093 7.0278047e-39 330 272
0.013616386 0.70599997 -0.039611302 8.3185435e-39 331 272
0.01487528 0.70700002 -0.039667413 1.134731e-38 332 272
0.01613768 0.708 -0.039723519 1.1623537e-38 333 272
0.01745268 0.71100003 -0.039891839 1.2635881e-38 334 272
0.018751899 0.713 -0.040004052 1.2635881e-38 335 272
0.020030079 0.71399999 -0.040060159 1.2543683e-38 336 272
0.021341572 0.71600002 -0.040172372 1.2636237e-38 337 272
0.022596961 0.71600002 -0.040172372 1.3464553e-38 338 272
0.02388566 0.71700001 -0.040228479 1.798178e-38 339 272
0.0251428 0.71700001 -0.040228479 2.1390115e-38 340 272
0.02639994 0.71700001 -0.040228479 2.2219515e-38 341 272
-0.038916986 0.71600002 -0.041427758 2.3325494e-38 289 273
-0.037556399 0.71399999 -0.041312039 1.9270704e-38 290 273
-0.036151983 0.71100003 -0.041138459 1.4660923e-38 291 273
-0.034905359 0.71100003 -0.041138459 1.4756371e-38 292 273
-0.033611398 0.70999998 -0.041080594 1.5678687e-38 293 273
-0.032366529 0.70999998 -0.041080594 1.6323335e-38 294 273
-0.031121666 0.70999998 -0.041080594 1.6046747e-38 295 273
-0.02979264 0.708 -0.040964879 1.5123718e-38 296 273
-0.028510952 0.70700002 -0.040907022 1.466274e-38 297 273
-0.027232772 0.70599997 -0.040849157 1.4206448e-38 298 273
-0.02592128 0.704 -0.040733438 1.4483033e-38 299 273
-0.024686933 0.704 -0.040733438 1.3563245e-38 300 273
-0.023419274 0.70300001 -0.040675577 1.2272506e-38 301 273
-0.02218668 0.70300001 -0.040675577 1.3745494e-38 302 273
-0.020954086 0.70300001 -0.040675577 1.6050026e-38 303 273
-0.019749546 0.704 -0.040733438 1.6328415e-38 304 273
-0.018488899 0.70300001 -0.040675577 1.6144022e-38 305 273
-0.017256306 0.70300001 -0.040675577 1.5499006e-38 306 273
-0.016023712 0.70300001 -0.040675577 1.5314256e-38 307 273
-0.014749039 0.70099998 -0.040559858 1.549937e-38 308 273
-0.013500666 0.69999999 -0.040502001 1.4854001e-38 309 273
-0.012273333 0.69999999 -0.040502001 1.3563612e-38 310 273
-0.011045999 0.69999999 -0.040502001 1.1812254e-38 311 273
-0.0098186666 0.69999999 -0.040502001 1.1074701e-38 312 273
-0.0085913334 0.69999999 -0.040502001 1.2549831e-38 313 273
-0.0073639993 0.69999999 -0.040502001 1.310122e-38 314 273
-0.0061366665 0.69999999 -0.040502001 1.291647e-38 315 273
-0.0049093333 0.69999999 -0.040502001 1.2826776e-38 316 273
-0.0036819996 0.69999999 -0.040502001 1.3103361e-38 317 273
-0.0024546667 0.69999999 -0.040502001 1.383804e-38 318 273
-0.0012273333 0.69999999 -0.040502001 1.4022072e-38 319 273
0 0.69999999 -0.040502001 1.1811903e-38 320 273
0.0012273333 0.69999999 -0.040502001 1.0705556e-38 321 273
0.0024546667 0.69999999 -0.040502001 9.608932e-39 322 273
0.0036819996 0.69999999 -0.040502001 9.9777145e-39 323 273
0.0049093333 0.69999999 -0.040502001 1.1075052e-38 324 273
0.0061454331 0.70099998 -0.040559858 8.6783241e-39 325 273
0.0073745195 0.70099998 -0.040559858 4.9812517e-40 326 273
0.0086036054 0.70099998 -0.040559858 8.6726782e-40 327 273
0.0098607466 0.70300001 -0.040675577 1.1413716e-39 328 273
0.011109119 0.704 -0.040733438 2.2473604e-39 329 273
0.012343466 0.704 -0.040733438 7.7603517e-39 330 273
0.013616386 0.70599997 -0.040849157 9.6964585e-39 331 273
0.01487528 0.70700002 -0.040907022 1.171609e-38 332 273
0.01613768 0.708 -0.040964879 1.1808285e-38 333 273
0.01745268 0.71100003 -0.041138459 1.2361089e-38 334 273
0.018751899 0.713 -0.041254178 1.2361089e-38 335 273
