# .PCD v.7 - Point Cloud Data file format
FIELDS x y z rgb imX imY
SIZE 4 4 4 4 4 4
TYPE F F F F F F
COUNT 1 1 1 1 1 1
WIDTH 832
HEIGHT 1
VIEWPOINT 0 0 0 1 0 0 0
POINTS 832
DATA ascii
-0.020685827 0.69400001 -0.025553079 1.5497558e-38 303 261
-0.019469013 0.69400001 -0.025553079 1.2641311e-38 304 261
-0.018225901 0.69300002 -0.02551626 1.245692e-38 305 261
-0.01701084 0.69300002 -0.02551626 1.2546246e-38 306 261
-0.015795778 0.69300002 -0.02551626 1.2084907e-38 307 261
-0.014580719 0.69300002 -0.02551626 1.116798e-38 308 261
-0.013327086 0.69099998 -0.025442619 1.1075783e-38 309 261
-0.012115533 0.69099998 -0.025442619 1.0891036e-38 310 261
-0.01090398 0.69099998 -0.025442619 1.0983232e-38 311 261
-0.0096924258 0.69099998 -0.025442619 1.2452598e-38 312 261
-0.008480873 0.69099998 -0.025442619 1.2360403e-38 313 261
-0.0072693196 0.69099998 -0.025442619 1.236004e-38 314 261
-0.0060577663 0.69099998 -0.025442619 1.1622473e-38 315 261
-0.0048462129 0.69099998 -0.025442619 1.0150231e-38 316 261
-0.0036346598 0.69099998 -0.025442619 1.0150231e-38 317 261
-0.0024231065 0.69099998 -0.025442619 9.6024496e-39 318 261
-0.0012115532 0.69099998 -0.025442619 1.0800991e-38 319 261
0 0.69099998 -0.025442619 1.1628235e-38 320 261
0.0012115532 0.69099998 -0.025442619 1.1628235e-38 321 261
0.00243012 0.69300002 -0.02551626 1.1995213e-38 322 261
0.0036451798 0.69300002 -0.02551626 1.1903017e-38 323 261
0.00486024 0.69300002 -0.02551626 1.2272509e-38 324 261
0.0060840664 0.69400001 -0.025553079 1.2272509e-38 325 261
0.0073008798 0.69400001 -0.025553079 1.1901203e-38 326 261
0.0085176928 0.69400001 -0.025553079 1.1993398e-38 327 261
0.0097625591 0.69599998 -0.025626717 1.2360389e-38 328 261
0.01099866 0.69700003 -0.025663542 1.1530628e-38 329 261
0.012220734 0.69700003 -0.025663542 1.0338922e-38 330 261
0.013462093 0.69800001 -0.025700359 1.0707345e-38 331 261
0.014727999 0.69999999 -0.025773998 1.1346584e-38 332 261
0.015978126 0.70099998 -0.025810819 1.0977802e-38 333 261
0.017256306 0.70300001 -0.025884461 1.1531331e-38 334 261
0.018515198 0.704 -0.02592128 1.1715723e-38 335 261
0.019805651 0.70599997 -0.025994917 1.2358575e-38 336 261
0.021043506 0.70599997 -0.025994917 1.3557118e-38 337 261
0.022344479 0.708 -0.026068559 1.5492128e-38 338 261
0.023585839 0.708 -0.026068559 2.0194105e-38 339 261
0.025002534 0.713 -0.026252659 2.2402106e-38 340 261
-0.039723519 0.708 -0.027309919 2.249646e-38 288 262
-0.038482159 0.708 -0.027309919 2.1390112e-38 289 262
-0.037135597 0.70599997 -0.027232772 1.7145523e-38 290 262
-0.035897743 0.70599997 -0.027232772 1.3641729e-38 291 262
-0.034561705 0.704 -0.027155625 1.6216022e-38 292 262
-0.03332736 0.704 -0.027155625 1.5385903e-38 293 262
-0.032093015 0.704 -0.027155625 1.667089e-38 294 262
-0.030814834 0.70300001 -0.027117053 1.6947117e-38 295 262
-0.029582238 0.70300001 -0.027117053 1.5841473e-38 296 262
-0.028268991 0.70099998 -0.027039904 1.1416443e-38 297 262
-0.026924185 0.69800001 -0.026924185 1.3599995e-38 298 262
-0.025663542 0.69700003 -0.026885614 1.4060974e-38 299 262
-0.024441468 0.69700003 -0.026885614 1.4556868e-38 300 262
-0.023186078 0.69599998 -0.026847038 1.9719823e-38 301 262
-0.021902639 0.69400001 -0.026769891 1.5957813e-38 302 262
-0.020685827 0.69400001 -0.026769891 1.5496836e-38 303 262
-0.019469013 0.69400001 -0.026769891 1.1446005e-38 304 262
-0.018225901 0.69300002 -0.02673132 9.694648e-39 305 262
-0.01701084 0.69300002 -0.02673132 1.070557e-38 306 262
-0.015795778 0.69300002 -0.02673132 1.1443494e-38 307 262
-0.014580719 0.69300002 -0.02673132 1.1443844e-38 308 262
-0.01336566 0.69300002 -0.02673132 1.1628235e-38 309 262
-0.012115533 0.69099998 -0.026654173 1.2546948e-38 310 262
-0.01090398 0.69099998 -0.026654173 1.273098e-38 311 262
-0.0096924258 0.69099998 -0.026654173 1.3097958e-38 312 262
-0.008480873 0.69099998 -0.026654173 1.3005402e-38 313 262
-0.0072693196 0.69099998 -0.026654173 1.2822457e-38 314 262
-0.0060577663 0.69099998 -0.026654173 1.3191238e-38 315 262
-0.0048462129 0.69099998 -0.026654173 1.3002888e-38 316 262
-0.0036346598 0.69099998 -0.026654173 1.1619954e-38 317 262
-0.0024231065 0.69099998 -0.026654173 1.0336768e-38 318 262
-0.00121506 0.69300002 -0.02673132 1.006054e-38 319 262
0 0.69300002 -0.02673132 9.5073799e-39 320 262
0.00121506 0.69300002 -0.02673132 1.0152749e-38 321 262
0.0024336267 0.69400001 -0.026769891 1.1075783e-38 322 262
0.0036504399 0.69400001 -0.026769891 1.116798e-38 323 262
0.0048672534 0.69400001 -0.026769891 1.1537112e-38 324 262
0.0060840664 0.69400001 -0.026769891 1.1629307e-38 325 262
0.0073008798 0.69400001 -0.026769891 1.1902284e-38 326 262
0.0085422397 0.69599998 -0.026847038 1.1256915e-38 327 262
0.0097765867 0.69700003 -0.026885614 1.1806133e-38 328 262
0.01099866 0.69700003 -0.026885614 1.0884537e-38 329 262
0.012238266 0.69800001 -0.026924185 1.0336768e-38 330 262
0.013462093 0.69800001 -0.026924185 1.1074333e-38 331 262
0.014727999 0.69999999 -0.027001332 1.1991603e-38 332 262
0.016023712 0.70300001 -0.027117053 1.2083799e-38 333 262
0.017256306 0.70300001 -0.027117053 1.1533131e-38 334 262
0.018515198 0.704 -0.027155625 1.1809357e-38 335 262
0.019805651 0.70599997 -0.027232772 1.2268172e-38 336 262
0.021043506 0.70599997 -0.027232772 1.3190127e-38 337 262
0.022344479 0.708 -0.027309919 1.5306292e-38 338 262
0.023752406 0.713 -0.027502786 2.019266e-38 339 262
0.025002534 0.713 -0.027502786 2.249466e-38 340 262
-0.039723519 0.708 -0.02855128 2.2496104e-38 288 263
-0.038482159 0.708 -0.02855128 2.1390115e-38 289 263
-0.037188202 0.70700002 -0.028510952 1.7605778e-38 290 263
-0.035948593 0.70700002 -0.028510952 1.3456616e-38 291 263
-0.034561705 0.704 -0.028389972 1.5101042e-38 292 263
-0.03332736 0.704 -0.028389972 1.5653858e-38 293 263
-0.032093015 0.704 -0.028389972 1.6485073e-38 294 263
-0.030814834 0.70300001 -0.028349647 1.7683616e-38 295 263
-0.029582238 0.70300001 -0.028349647 1.6674126e-38 296 263
-0.028349647 0.70300001 -0.028349647 1.2156542e-38 297 263
-0.027001332 0.69999999 -0.028228667 1.3602879e-38 298 263
-0.025700359 0.69800001 -0.028148014 1.3510684e-38 299 263
-0.024441468 0.69700003 -0.028107686 1.4832732e-38 300 263
-0.023186078 0.69599998 -0.028067358 1.9811656e-38 301 263
-0.021965759 0.69599998 -0.028067358 1.5774501e-38 302 263
-0.020745439 0.69599998 -0.028067358 1.5497555e-38 303 263
-0.019525118 0.69599998 -0.028067358 1.273458e-38 304 263
-0.0182522 0.69400001 -0.027986705 1.1351646e-38 305 263
-0.017035386 0.69400001 -0.027986705 1.199486e-38 306 263
-0.015795778 0.69300002 -0.027946379 1.217961e-38 307 263
-0.014580719 0.69300002 -0.027946379 1.2638064e-38 308 263
-0.01336566 0.69300002 -0.027946379 1.273026e-38 309 263
-0.012150601 0.69300002 -0.027946379 1.3006125e-38 310 263
-0.010935539 0.69300002 -0.027946379 1.3006125e-38 311 263
-0.0097204801 0.69300002 -0.027946379 1.3096521e-38 312 263
-0.0085054198 0.69300002 -0.027946379 1.2728099e-38 313 263
-0.0072903596 0.69300002 -0.027946379 1.1809029e-38 314 263
-0.0060753003 0.69300002 -0.027946379 1.2177812e-38 315 263
-0.00486024 0.69300002 -0.027946379 1.2450433e-38 316 263
-0.0036451798 0.69300002 -0.027946379 1.1528477e-38 317 263
-0.00243012 0.69300002 -0.027946379 1.0978897e-38 318 263
-0.00121506 0.69300002 -0.027946379 1.0702309e-38 319 263
0 0.69300002 -0.027946379 9.8757953e-39 320 263
0.00121506 0.69300002 -0.027946379 1.0521165e-38 321 263
0.0024336267 0.69400001 -0.027986705 1.1901945e-38 322 263
0.0036504399 0.69400001 -0.027986705 1.1901945e-38 323 263
0.0048672534 0.69400001 -0.027986705 1.1626437e-38 324 263
0.0060840664 0.69400001 -0.027986705 1.1718633e-38 325 263
0.0073219193 0.69599998 -0.028067358 1.2085967e-38 326 263
0.0085422397 0.69599998 -0.028067358 1.180938e-38 327 263
0.0097765867 0.69700003 -0.028107686 1.1991603e-38 328 263
0.01101444 0.69800001 -0.028148014 1.1161844e-38 329 263
0.012238266 0.69800001 -0.028148014 1.0795225e-38 330 263
0.013500666 0.69999999 -0.028228667 1.0887421e-38 331 263
0.014749039 0.70099998 -0.028268991 1.1717537e-38 332 263
0.016023712 0.70300001 -0.028349647 1.2178515e-38 333 263
0.017280852 0.704 -0.028389972 1.1993033e-38 334 263
0.018515198 0.704 -0.028389972 1.2085228e-38 335 263
0.019805651 0.70599997 -0.028470624 1.2544757e-38 336 263
0.021043506 0.70599997 -0.028470624 1.3097931e-38 337 263
0.022312919 0.70700002 -0.028510952 1.5029705e-38 338 263
0.023752406 0.713 -0.028752912 2.0100105e-38 339 263
-0.039723519 0.708 -0.02979264 2.2403904e-38 288 264
-0.038482159 0.708 -0.02979264 2.1205721e-38 289 264
-0.0372408 0.708 -0.02979264 1.8526655e-38 290 264
-0.035948593 0.70700002 -0.029750559 1.4930667e-38 291 264
-0.034561705 0.704 -0.029624319 1.4729368e-38 292 264
-0.03332736 0.704 -0.029624319 1.4176194e-38 293 264
-0.032093015 0.704 -0.029624319 1.6021551e-38 294 264
-0.030858666 0.704 -0.029624319 1.8049856e-38 295 264
-0.029582238 0.70300001 -0.029582238 1.6584083e-38 296 264
-0.028349647 0.70300001 -0.029582238 1.2343084e-38 297 264
-0.027039904 0.70099998 -0.029498078 1.3881271e-38 298 264
-0.025700359 0.69800001 -0.029371841 1.3143706e-38 299 264
-0.024476532 0.69800001 -0.029371841 1.4739101e-38 300 264
-0.023219392 0.69700003 -0.02932976 1.9994252e-38 301 264
-0.021965759 0.69599998 -0.029287677 1.5682302e-38 302 264
-0.020745439 0.69599998 -0.029287677 1.5682302e-38 303 264
-0.019553173 0.69700003 -0.02932976 1.3471421e-38 304 264
-0.018304799 0.69599998 -0.029287677 1.2641661e-38 305 264
-0.017035386 0.69400001 -0.029203519 1.3007926e-38 306 264
-0.015818574 0.69400001 -0.029203519 1.2823176e-38 307 264
-0.01460176 0.69400001 -0.029203519 1.2823532e-38 308 264
-0.013384946 0.69400001 -0.029203519 1.3007923e-38 309 264
-0.012168133 0.69400001 -0.029203519 1.328379e-38 310 264
-0.01095132 0.69400001 -0.029203519 1.3191235e-38 311 264
-0.0097204801 0.69300002 -0.029161438 1.3006128e-38 312 264
-0.0085054198 0.69300002 -0.029161438 1.2913572e-38 313 264
-0.0072903596 0.69300002 -0.029161438 1.2177087e-38 314 264
-0.0060753003 0.69300002 -0.029161438 1.1439522e-38 315 264
-0.00486024 0.69300002 -0.029161438 1.1622821e-38 316 264
-0.0036451798 0.69300002 -0.029161438 1.1807213e-38 317 264
-0.00243012 0.69300002 -0.029161438 1.1440227e-38 318 264
-0.00121506 0.69300002 -0.029161438 1.1255836e-38 319 264
0 0.69300002 -0.029161438 1.1163287e-38 320 264
0.0012168133 0.69400001 -0.029203519 1.1624267e-38 321 264
0.0024336267 0.69400001 -0.029203519 1.2728818e-38 322 264
0.0036504399 0.69400001 -0.029203519 1.2636264e-38 323 264
0.0048672534 0.69400001 -0.029203519 1.2084892e-38 324 264
0.0061015999 0.69599998 -0.029287677 1.2084892e-38 325 264
0.0073219193 0.69599998 -0.029287677 1.2084892e-38 326 264
0.0085545136 0.69700003 -0.02932976 1.2269642e-38 327 264
0.0097765867 0.69700003 -0.02932976 1.2268187e-38 328 264
0.01101444 0.69800001 -0.029371841 1.1438427e-38 329 264
0.012238266 0.69800001 -0.029371841 1.0702659e-38 330 264
0.013500666 0.69999999 -0.029455997 1.0241683e-38 331 264
0.014749039 0.70099998 -0.029498078 1.1257279e-38 332 264
0.016023712 0.70300001 -0.029582238 1.1810452e-38 333 264
0.017280852 0.704 -0.029624319 1.2268543e-38 334 264
0.018515198 0.704 -0.029624319 1.2360739e-38 335 264
0.019805651 0.70599997 -0.029708479 1.2727351e-38 336 264
0.021073313 0.70700002 -0.029750559 1.3280525e-38 337 264
0.022312919 0.70700002 -0.029750559 1.5122617e-38 338 264
0.023552528 0.70700002 -0.029750559 2.0009345e-38 339 264
-0.039723519 0.708 -0.031034 2.2679769e-38 288 265
-0.038482159 0.708 -0.031034 2.157378e-38 289 265
-0.0372408 0.708 -0.031034 1.8619927e-38 290 265
-0.03599944 0.708 -0.031034 1.5208329e-38 291 265
-0.034659892 0.70599997 -0.030946331 1.4638952e-38 292 265
-0.033422034 0.70599997 -0.030946331 1.3071626e-38 293 265
-0.032093015 0.704 -0.030858666 1.4074628e-38 294 265
-0.030858666 0.704 -0.030858666 1.6840137e-38 295 265
-0.029624319 0.704 -0.030858666 1.556093e-38 296 265
-0.028349647 0.70300001 -0.030814834 1.2887257e-38 297 265
-0.027039904 0.70099998 -0.030727165 1.470779e-38 298 265
-0.025773998 0.69999999 -0.030683333 1.3232302e-38 299 265
-0.024476532 0.69800001 -0.030595668 1.4462877e-38 300 265
-0.023219392 0.69700003 -0.030551834 1.9994615e-38 301 265
-0.02199732 0.69700003 -0.030551834 1.595781e-38 302 265
-0.020775247 0.69700003 -0.030551834 1.5773419e-38 303 265
-0.019553173 0.69700003 -0.030551834 1.2827129e-38 304 265
-0.018304799 0.69599998 -0.030507999 1.1997367e-38 305 265
-0.017084479 0.69599998 -0.030507999 1.3097968e-38 306 265
-0.015864158 0.69599998 -0.030507999 1.2637348e-38 307 265
-0.01460176 0.69400001 -0.030420333 1.273026e-38 308 265
-0.013384946 0.69400001 -0.030420333 1.3191238e-38 309 265
-0.012168133 0.69400001 -0.030420333 1.3100121e-38 310 265
-0.01095132 0.69400001 -0.030420333 1.291573e-38 311 265
-0.0097345067 0.69400001 -0.030420333 1.2915374e-38 312 265
-0.0085176928 0.69400001 -0.030420333 1.3100124e-38 313 265
-0.0073008798 0.69400001 -0.030420333 1.3006128e-38 314 265
-0.0060840664 0.69400001 -0.030420333 1.1623193e-38 315 265
-0.0048672534 0.69400001 -0.030420333 1.1347679e-38 316 265
-0.0036451798 0.69300002 -0.0303765 1.1624267e-38 317 265
-0.00243012 0.69300002 -0.0303765 1.1164731e-38 318 265
-0.0012168133 0.69400001 -0.030420333 1.0796307e-38 319 265
0 0.69400001 -0.030420333 1.2084525e-38 320 265
0.0012168133 0.69400001 -0.030420333 1.2453307e-38 321 265
0.0024406398 0.69599998 -0.030507999 1.2638052e-38 322 265
0.0036609597 0.69599998 -0.030507999 1.2545856e-38 323 265
0.0048812795 0.69599998 -0.030507999 1.2177441e-38 324 265
0.0061015999 0.69599998 -0.030507999 1.2177441e-38 325 265
0.00733244 0.69700003 -0.030551834 1.2085967e-38 326 265
0.0085545136 0.69700003 -0.030551834 1.2085967e-38 327 265
0.0097906133 0.69800001 -0.030595668 1.171789e-38 328 265
0.01101444 0.69800001 -0.030595668 1.153314e-38 329 265
0.012273333 0.69999999 -0.030683333 1.1715369e-38 330 265
0.013519952 0.70099998 -0.030727165 1.1623174e-38 331 265
0.014791119 0.70300001 -0.030814834 1.1807566e-38 332 265
0.016046507 0.704 -0.030858666 1.2176348e-38 333 265
0.017280852 0.704 -0.030858666 1.2451134e-38 334 265
0.018567799 0.70599997 -0.030946331 1.2543688e-38 335 265
0.019833706 0.70700002 -0.030990168 1.2727351e-38 336 265
0.021073313 0.70700002 -0.030990168 1.3741863e-38 337 265
0.022344479 0.708 -0.031034 1.5675075e-38 338 265
0.023585839 0.708 -0.031034 2.0377052e-38 339 265
-0.038482159 0.708 -0.03227536 2.1665976e-38 289 266
-0.0372408 0.708 -0.03227536 1.8898305e-38 290 266
-0.03599944 0.708 -0.03227536 1.5302677e-38 291 266
-0.034708988 0.70700002 -0.032229774 1.5292933e-38 292 266
-0.033469379 0.70700002 -0.032229774 1.2158282e-38 293 266
-0.032093015 0.704 -0.032093015 1.315407e-38 294 266
-0.030858666 0.704 -0.032093015 1.315407e-38 295 266
-0.029624319 0.704 -0.032093015 1.4168246e-38 296 266
-0.028349647 0.70300001 -0.032047424 1.4168246e-38 297 266
-0.027117053 0.70300001 -0.032047424 1.4895769e-38 298 266
-0.025773998 0.69999999 -0.031910665 1.277527e-38 299 266
-0.024476532 0.69800001 -0.031819493 1.4279558e-38 300 266
-0.023252707 0.69800001 -0.031819493 1.9995687e-38 301 266
-0.02199732 0.69700003 -0.03177391 1.6142922e-38 302 266
-0.020775247 0.69700003 -0.03177391 1.5774498e-38 303 266
-0.019581227 0.69800001 -0.031819493 1.2642736e-38 304 266
-0.018331099 0.69700003 -0.03177391 1.1167247e-38 305 266
-0.017109027 0.69700003 -0.03177391 1.2545515e-38 306 266
-0.015864158 0.69599998 -0.031728316 1.2361484e-38 307 266
-0.01460176 0.69400001 -0.031637147 1.2546596e-38 308 266
-0.013384946 0.69400001 -0.031637147 1.2730986e-38 309 266
-0.0122032 0.69599998 -0.031728316 1.2546952e-38 310 266
-0.01095132 0.69400001 -0.031637147 1.2546952e-38 311 266
-0.0097345067 0.69400001 -0.031637147 1.254839e-38 312 266
-0.0085176928 0.69400001 -0.031637147 1.254839e-38 313 266
-0.0073008798 0.69400001 -0.031637147 1.3100124e-38 314 266
-0.0060840664 0.69400001 -0.031637147 1.1901582e-38 315 266
-0.0048672534 0.69400001 -0.031637147 1.1442395e-38 316 266
-0.0036504399 0.69400001 -0.031637147 1.1718983e-38 317 266
-0.0024336267 0.69400001 -0.031637147 1.1532074e-38 318 266
-0.0012168133 0.69400001 -0.031637147 1.09789e-38 319 266
0 0.69400001 -0.031637147 1.2913209e-38 320 266
0.0012203199 0.69599998 -0.031728316 1.3005405e-38 321 266
0.0024406398 0.69599998 -0.031728316 1.25455e-38 322 266
0.0036609597 0.69599998 -0.031728316 1.25455e-38 323 266
0.0048812795 0.69599998 -0.031728316 1.2452583e-38 324 266
0.0061103669 0.69700003 -0.03177391 1.2636973e-38 325 266
0.00733244 0.69700003 -0.03177391 1.2453307e-38 326 266
0.0085545136 0.69700003 -0.03177391 1.1992329e-38 327 266
0.0097906133 0.69800001 -0.031819493 1.1350197e-38 328 266
0.01101444 0.69800001 -0.031819493 1.2087762e-38 329 266
0.012273333 0.69999999 -0.031910665 1.2728447e-38 330 266
0.013558527 0.70300001 -0.032047424 1.2083077e-38 331 266
0.014812159 0.704 -0.032093015 1.2358938e-38 332 266
0.016092092 0.70599997 -0.032184184 1.2543688e-38 333 266
0.017329946 0.70599997 -0.032184184 1.2360736e-38 334 266
0.018594101 0.70700002 -0.032229774 1.2360736e-38 335 266
0.01986176 0.708 -0.03227536 1.3279453e-38 336 266
0.021103119 0.708 -0.03227536 1.4293603e-38 337 266
0.022407599 0.70999998 -0.032366529 1.5583605e-38 338 266
0.023752406 0.713 -0.032503292 2.0101191e-38 339 266
0.025002534 0.713 -0.032503292 2.2125879e-38 340 266
-0.0372408 0.708 -0.033516716 1.9360376e-38 290 267
-0.03599944 0.708 -0.033516716 1.6410475e-38 291 267
-0.034708988 0.70700002 -0.033469379 1.6866055e-38 292 267
-0.033469379 0.70700002 -0.033469379 1.6405437e-38 293 267
-0.032184184 0.70599997 -0.033422034 1.5937968e-38 294 267
-0.030946331 0.70599997 -0.033422034 1.2711121e-38 295 267
-0.029624319 0.704 -0.03332736 1.333741e-38 296 267
-0.028349647 0.70300001 -0.033280019 1.250765e-38 297 267
-0.027117053 0.70300001 -0.033280019 1.4063119e-38 298 267
-0.025810819 0.70099998 -0.03318534 1.2864576e-38 299 267
-0.024546666 0.69999999 -0.033137999 1.4095169e-38 300 267
-0.023252707 0.69800001 -0.033043321 2.0087885e-38 301 267
-0.02202888 0.69800001 -0.033043321 1.5867414e-38 302 267
-0.020805053 0.69800001 -0.033043321 1.5683021e-38 303 267
-0.019581227 0.69800001 -0.033043321 1.2919327e-38 304 267
-0.018331099 0.69700003 -0.03299598 1.1628588e-38 305 267
-0.017109027 0.69700003 -0.03299598 1.2179974e-38 306 267
-0.015886955 0.69700003 -0.03299598 1.2272529e-38 307 267
-0.01466488 0.69700003 -0.03299598 1.2364002e-38 308 267
-0.013442807 0.69700003 -0.03299598 1.217961e-38 309 267
-0.0122032 0.69599998 -0.032948639 1.2452601e-38 310 267
-0.010982879 0.69599998 -0.032948639 1.2636992e-38 311 267
-0.0097345067 0.69400001 -0.032853961 1.2548036e-38 312 267
-0.0085176928 0.69400001 -0.032853961 1.227181e-38 313 267
-0.0073008798 0.69400001 -0.032853961 1.2455122e-38 314 267
-0.0061015999 0.69599998 -0.032948639 1.2362925e-38 315 267
-0.0048812795 0.69599998 -0.032948639 1.1904462e-38 316 267
-0.0036609597 0.69599998 -0.032948639 1.2089213e-38 317 267
-0.0024406398 0.69599998 -0.032948639 1.1900499e-38 318 267
-0.0012203199 0.69599998 -0.032948639 1.1992695e-38 319 267
0 0.69700003 -0.03299598 1.3006128e-38 320 267
0.0012220733 0.69700003 -0.03299598 1.2637345e-38 321 267
0.0024441467 0.69700003 -0.03299598 1.2361835e-38 322 267
0.00366622 0.69700003 -0.03299598 1.2361835e-38 323 267
0.0048882933 0.69700003 -0.03299598 1.2178159e-38 324 267
0.0061103669 0.69700003 -0.03299598 1.2270355e-38 325 267
0.0073429602 0.69800001 -0.033043321 1.2177441e-38 326 267
0.0085667865 0.69800001 -0.033043321 1.1993048e-38 327 267
0.0097906133 0.69800001 -0.033043321 1.1902649e-38 328 267
0.011045999 0.69999999 -0.033137999 1.2087399e-38 329 267
0.012273333 0.69999999 -0.033137999 1.2453655e-38 330 267
0.013558527 0.70300001 -0.033280019 1.2453655e-38 331 267
0.014812159 0.704 -0.03332736 1.208595e-38 332 267
0.016092092 0.70599997 -0.033422034 1.19012e-38 333 267
0.017329946 0.70599997 -0.033422034 1.2176348e-38 334 267
0.0186204 0.708 -0.033516716 1.3006108e-38 335 267
0.019917866 0.70999998 -0.033611398 1.4109932e-38 336 267
0.021162732 0.70999998 -0.033611398 1.4109932e-38 337 267
0.022439159 0.71100003 -0.033658739 1.5307014e-38 338 267
0.023752406 0.713 -0.033753417 1.9916795e-38 339 267
0.025002534 0.713 -0.033753417 2.2126595e-38 340 267
-0.037345998 0.70999998 -0.034856264 1.8901566e-38 290 268
-0.03599944 0.708 -0.034758076 1.6597034e-38 291 268
-0.034758076 0.708 -0.034758076 1.7515041e-38 292 268
-0.033469379 0.70700002 -0.034708988 1.7883822e-38 293 268
-0.032229774 0.70700002 -0.034708988 1.5949145e-38 294 268
-0.030946331 0.70599997 -0.034659892 1.4658406e-38 295 268
-0.029708479 0.70599997 -0.034659892 1.4736185e-38 296 268
-0.028389972 0.704 -0.034561705 1.1509339e-38 297 268
-0.027117053 0.70300001 -0.034512613 1.2690243e-38 298 268
-0.025810819 0.70099998 -0.034414422 1.0477546e-38 299 268
-0.024581732 0.70099998 -0.034414422 1.4001881e-38 300 268
-0.023252707 0.69800001 -0.034267146 2.0363378e-38 301 268
-0.02202888 0.69800001 -0.034267146 1.6142922e-38 302 268
-0.020805053 0.69800001 -0.034267146 1.5774498e-38 303 268
-0.019581227 0.69800001 -0.034267146 1.3562897e-38 304 268
-0.0183574 0.69800001 -0.034267146 1.2825332e-38 305 268
-0.017133573 0.69800001 -0.034267146 1.2822825e-38 306 268
-0.015909746 0.69800001 -0.034267146 1.2915021e-38 307 268
-0.01466488 0.69700003 -0.034218054 1.2179974e-38 308 268
-0.013442807 0.69700003 -0.034218054 1.2272529e-38 309 268
-0.012220734 0.69700003 -0.034218054 1.2271807e-38 310 268
-0.010982879 0.69599998 -0.034168959 1.217961e-38 311 268
-0.0097625591 0.69599998 -0.034168959 1.227181e-38 312 268
-0.0085422397 0.69599998 -0.034168959 1.227181e-38 313 268
-0.0073219193 0.69599998 -0.034168959 1.181335e-38 314 268
-0.0061015999 0.69599998 -0.034168959 1.1628957e-38 315 268
-0.0048882933 0.69700003 -0.034218054 1.2364005e-38 316 268
-0.00366622 0.69700003 -0.034218054 1.2640232e-38 317 268
-0.0024441467 0.69700003 -0.034218054 1.1349493e-38 318 268
-0.0012220733 0.69700003 -0.034218054 1.162644e-38 319 268
0 0.69800001 -0.034267146 1.1902664e-38 320 268
0.0012238267 0.69800001 -0.034267146 1.1718633e-38 321 268
0.0024476533 0.69800001 -0.034267146 1.1719708e-38 322 268
0.00366622 0.69700003 -0.034218054 1.1811903e-38 323 268
0.0048882933 0.69700003 -0.034218054 1.2087043e-38 324 268
0.006119133 0.69800001 -0.034267146 1.1994847e-38 325 268
0.0073429602 0.69800001 -0.034267146 1.2453302e-38 326 268
0.0085667865 0.69800001 -0.034267146 1.2453302e-38 327 268
0.0098186666 0.69999999 -0.034365334 1.19952e-38 328 268
0.011045999 0.69999999 -0.034365334 1.2087396e-38 329 268
0.012325933 0.70300001 -0.034512613 1.263697e-38 330 268
0.013577812 0.704 -0.034561705 1.263697e-38 331 268
0.014812159 0.704 -0.034561705 1.2453292e-38 332 268
0.016092092 0.70599997 -0.034659892 1.2453292e-38 333 268
0.017354494 0.70700002 -0.034708988 1.3557481e-38 334 268
0.0186204 0.708 -0.034758076 1.3649677e-38 335 268
0.019917866 0.70999998 -0.034856264 1.3374885e-38 336 268
0.021162732 0.70999998 -0.034856264 1.328269e-38 337 268
0.022439159 0.71100003 -0.034905359 1.4755639e-38 338 268
0.02378572 0.71399999 -0.035052639 1.9918594e-38 339 268
0.025037598 0.71399999 -0.035052639 2.2402462e-38 340 268
-0.037398599 0.71100003 -0.036151983 1.8625691e-38 290 269
-0.036101133 0.70999998 -0.036101133 1.6689582e-38 291 269
-0.034758076 0.708 -0.03599944 1.6689599e-38 292 269
-0.033516716 0.708 -0.03599944 1.6504848e-38 293 269
-0.032229774 0.70700002 -0.035948593 1.5032967e-38 294 269
-0.030990168 0.70700002 -0.035948593 1.5586141e-38 295 269
-0.029708479 0.70599997 -0.035897743 1.7976021e-38 296 269
-0.028389972 0.704 -0.035796054 1.6132109e-38 297 269
-0.027155625 0.704 -0.035796054 1.4372404e-38 298 269
-0.025884461 0.70300001 -0.035745207 7.9187096e-39 299 269
-0.024581732 0.70099998 -0.035643511 1.198217e-38 300 269
-0.023319334 0.69999999 -0.035592664 1.9081233e-38 301 269
-0.02202888 0.69800001 -0.035490975 1.6142206e-38 302 269
-0.020805053 0.69800001 -0.035490975 1.5865618e-38 303 269
-0.019581227 0.69800001 -0.035490975 1.374621e-38 304 269
-0.0183574 0.69800001 -0.035490975 1.310084e-38 305 269
-0.017133573 0.69800001 -0.035490975 1.2915021e-38 306 269
-0.015909746 0.69800001 -0.035490975 1.2822825e-38 307 269
-0.01466488 0.69700003 -0.035440128 1.2089576e-38 308 269
-0.013442807 0.69700003 -0.035440128 1.2182131e-38 309 269
-0.012220734 0.69700003 -0.035440128 1.2824623e-38 310 269
-0.01099866 0.69700003 -0.035440128 1.2179254e-38 311 269
-0.0097765867 0.69700003 -0.035440128 1.1996662e-38 312 269
-0.0085545136 0.69700003 -0.035440128 1.2088858e-38 313 269
-0.00733244 0.69700003 -0.035440128 1.181335e-38 314 269
-0.006119133 0.69800001 -0.035490975 1.1628957e-38 315 269
-0.0048953067 0.69800001 -0.035490975 1.2364721e-38 316 269
-0.0036714801 0.69800001 -0.035490975 1.2364721e-38 317 269
-0.0024476533 0.69800001 -0.035490975 1.180975e-38 318 269
-0.0012238267 0.69800001 -0.035490975 1.1717553e-38 319 269
0 0.69800001 -0.035490975 1.1533887e-38 320 269
0.0012238267 0.69800001 -0.035490975 1.1626084e-38 321 269
0.0024476533 0.69800001 -0.035490975 1.1628235e-38 322 269
0.0036714801 0.69800001 -0.035490975 1.1812266e-38 323 269
0.0048953067 0.69800001 -0.035490975 1.2361835e-38 324 269
0.006119133 0.69800001 -0.035490975 1.2361835e-38 325 269
0.0073639993 0.69999999 -0.035592664 1.2270711e-38 326 269
0.0085913334 0.69999999 -0.035592664 1.2270711e-38 327 269
0.0098326923 0.70099998 -0.035643511 1.2177797e-38 328 269
0.011061779 0.70099998 -0.035643511 1.2177797e-38 329 269
0.012325933 0.70300001 -0.035745207 1.2635898e-38 330 269
0.013577812 0.704 -0.035796054 1.2728093e-38 331 269
0.014854239 0.70599997 -0.035897743 1.2638049e-38 332 269
0.016114887 0.70700002 -0.035948593 1.3099027e-38 333 269
0.017354494 0.70700002 -0.035948593 1.4386523e-38 334 269
0.018672999 0.70999998 -0.036101133 1.3925544e-38 335 269
0.01994592 0.71100003 -0.036151983 1.2822067e-38 336 269
0.021192541 0.71100003 -0.036151983 1.2822067e-38 337 269
0.022439159 0.71100003 -0.036151983 1.4847112e-38 338 269
0.02378572 0.71399999 -0.036304519 2.0194458e-38 339 269
0.025107734 0.71600002 -0.036406212 2.258649e-38 340 269
-0.037345998 0.70999998 -0.037345998 1.908631e-38 290 270
-0.036101133 0.70999998 -0.037345998 1.7334952e-38 291 270
-0.034856264 0.70999998 -0.037345998 1.5585773e-38 292 270
-0.033516716 0.708 -0.0372408 1.521663e-38 293 270
-0.032229774 0.70700002 -0.037188202 1.4388691e-38 294 270
-0.030990168 0.70700002 -0.037188202 1.4849668e-38 295 270
-0.029708479 0.70599997 -0.037135597 1.6324072e-38 296 270
-0.028389972 0.704 -0.037030395 1.6693215e-38 297 270
-0.027155625 0.704 -0.037030395 1.6687389e-38 298 270
-0.025884461 0.70300001 -0.036977798 1.2999566e-38 299 270
-0.024651866 0.70300001 -0.036977798 1.23632e-38 300 270
-0.023352645 0.70099998 -0.036872596 1.660384e-38 301 270
-0.022091998 0.69999999 -0.036819998 1.6142209e-38 302 270
-0.020864666 0.69999999 -0.036819998 1.6050013e-38 303 270
-0.019637333 0.69999999 -0.036819998 1.3194838e-38 304 270
-0.018409999 0.69999999 -0.036819998 1.2364719e-38 305 270
-0.017133573 0.69800001 -0.0367148 1.3008294e-38 306 270
-0.015909746 0.69800001 -0.0367148 1.2823904e-38 307 270
-0.01468592 0.69800001 -0.0367148 1.1906264e-38 308 270
-0.013462093 0.69800001 -0.0367148 1.1906264e-38 309 270
-0.012238266 0.69800001 -0.0367148 1.245692e-38 310 270
-0.01099866 0.69700003 -0.036662199 1.2179974e-38 311 270
-0.0097765867 0.69700003 -0.036662199 1.218033e-38 312 270
-0.0085667865 0.69800001 -0.0367148 1.2272526e-38 313 270
-0.0073429602 0.69800001 -0.0367148 1.2364721e-38 314 270
-0.006119133 0.69800001 -0.0367148 1.2272526e-38 315 270
-0.0048953067 0.69800001 -0.0367148 1.2364002e-38 316 270
-0.0036714801 0.69800001 -0.0367148 1.2548034e-38 317 270
-0.0024476533 0.69800001 -0.0367148 1.2730983e-38 318 270
-0.0012238267 0.69800001 -0.0367148 1.2546952e-38 319 270
0 0.69800001 -0.0367148 1.1719352e-38 320 270
0.0012238267 0.69800001 -0.0367148 1.1719352e-38 321 270
0.0024476533 0.69800001 -0.0367148 1.199486e-38 322 270
0.0036714801 0.69800001 -0.0367148 1.1902664e-38 323 270
0.0048953067 0.69800001 -0.0367148 1.2085611e-38 324 270
0.006119133 0.69800001 -0.0367148 1.2177806e-38 325 270
0.0073639993 0.69999999 -0.036819998 1.199485e-38 326 270
0.0085913334 0.69999999 -0.036819998 1.2087046e-38 327 270
0.0098326923 0.70099998 -0.036872596 1.2728099e-38 328 270
0.01109334 0.70300001 -0.036977798 1.2820295e-38 329 270
0.012343466 0.704 -0.037030395 1.2912843e-38 330 270
0.013616386 0.70599997 -0.037135597 1.3096875e-38 331 270
0.014854239 0.70599997 -0.037135597 1.2547648e-38 332 270
0.016114887 0.70700002 -0.037188202 1.2455453e-38 333 270
0.017379038 0.708 -0.0372408 1.3189055e-38 334 270
0.018672999 0.70999998 -0.037345998 1.3189055e-38 335 270
0.01994592 0.71100003 -0.037398599 1.2820623e-38 336 270
0.021192541 0.71100003 -0.037398599 1.3005014e-38 337 270
0.022502279 0.713 -0.037503798 1.5306648e-38 338 270
0.02378572 0.71399999 -0.037556399 2.074583e-38 339 270
0.025107734 0.71600002 -0.037661601 2.221915e-38 340 270
-0.040789545 0.727 -0.039514873 2.2403188e-38 288 271
-0.039134402 0.72000003 -0.039134402 2.1850015e-38 289 271
-0.037661601 0.71600002 -0.038916986 1.8811521e-38 290 271
-0.036151983 0.71100003 -0.038645219 1.7520782e-38 291 271
-0.034856264 0.70999998 -0.038590867 1.5769085e-38 292 271
-0.033516716 0.708 -0.038482159 1.4939323e-38 293 271
-0.03227536 0.708 -0.038482159 1.4757469e-38 294 271
-0.030990168 0.70700002 -0.038427804 1.4757469e-38 295 271
-0.029708479 0.70599997 -0.038373452 1.4206098e-38 296 271
-0.028389972 0.704 -0.038264744 1.5589032e-38 297 271
-0.027155625 0.704 -0.038264744 1.7797036e-38 298 271
-0.025884461 0.70300001 -0.038210396 1.6691047e-38 299 271
-0.024651866 0.70300001 -0.038210396 1.5038005e-38 300 271
-0.023352645 0.70099998 -0.038101684 1.577557e-38 301 271
-0.022091998 0.69999999 -0.038047329 1.6141853e-38 302 271
-0.020864666 0.69999999 -0.038047329 1.6141853e-38 303 271
-0.019637333 0.69999999 -0.038047329 1.2827141e-38 304 271
-0.018409999 0.69999999 -0.038047329 1.1536761e-38 305 271
-0.017182667 0.69999999 -0.038047329 1.2547686e-38 306 271
-0.015955333 0.69999999 -0.038047329 1.2547686e-38 307 271
-0.01468592 0.69800001 -0.037938625 1.2272173e-38 308 271
-0.013462093 0.69800001 -0.037938625 1.1903749e-38 309 271
-0.012238266 0.69800001 -0.037938625 1.2546599e-38 310 271
-0.01101444 0.69800001 -0.037938625 1.2454402e-38 311 271
-0.0097906133 0.69800001 -0.037938625 1.2271807e-38 312 271
-0.0085667865 0.69800001 -0.037938625 1.2364002e-38 313 271
-0.0073429602 0.69800001 -0.037938625 1.2364002e-38 314 271
-0.006119133 0.69800001 -0.037938625 1.2271807e-38 315 271
-0.0049093333 0.69999999 -0.038047329 1.2637711e-38 316 271
-0.0036714801 0.69800001 -0.037938625 1.2730267e-38 317 271
-0.0024476533 0.69800001 -0.037938625 1.2730986e-38 318 271
-0.0012273333 0.69999999 -0.038047329 1.2730986e-38 319 271
0 0.69800001 -0.037938625 1.2178888e-38 320 271
0.0012238267 0.69800001 -0.037938625 1.2178888e-38 321 271
0.0024476533 0.69800001 -0.037938625 1.2545871e-38 322 271
0.0036714801 0.69800001 -0.037938625 1.2361482e-38 323 271
0.0048953067 0.69800001 -0.037938625 1.1994497e-38 324 271
0.0061366665 0.69999999 -0.038047329 1.2086693e-38 325 271
0.0073639993 0.69999999 -0.038047329 1.2178888e-38 326 271
0.0085913334 0.69999999 -0.038047329 1.1902301e-38 327 271
0.0098326923 0.70099998 -0.038101684 1.236004e-38 328 271
0.01109334 0.70300001 -0.038210396 1.2636266e-38 329 271
0.012343466 0.704 -0.038264744 1.2547298e-38 330 271
0.013616386 0.70599997 -0.038373452 1.3008276e-38 331 271
0.01487528 0.70700002 -0.038427804 1.2913191e-38 332 271
0.01613768 0.708 -0.038482159 1.2175626e-38 333 271
0.017428132 0.70999998 -0.038590867 1.2083781e-38 334 271
0.0186993 0.71100003 -0.038645219 1.2268172e-38 335 271
0.01994592 0.71100003 -0.038645219 1.2452912e-38 336 271
0.021252153 0.713 -0.038753927 1.2821696e-38 337 271
0.022533838 0.71399999 -0.038808275 1.5675069e-38 338 271
0.023952285 0.71899998 -0.039080046 2.0745827e-38 339 271
0.025212931 0.71899998 -0.039080046 2.2219866e-38 340 271
-0.040677335 0.72500002 -0.040677335 2.2679416e-38 288 272
-0.039134402 0.72000003 -0.040396802 2.1665623e-38 289 272
-0.037661601 0.71600002 -0.040172372 1.7980321e-38 290 272
-0.036253672 0.713 -0.040004052 1.6597387e-38 291 272
-0.034905359 0.71100003 -0.039891839 1.6872909e-38 292 272
-0.033611398 0.70999998 -0.039835732 1.6320094e-38 293 272
-0.03227536 0.708 -0.039723519 1.5585419e-38 294 272
-0.031034 0.708 -0.039723519 1.5308831e-38 295 272
-0.029750559 0.70700002 -0.039667413 1.4203933e-38 296 272
-0.028470624 0.70599997 -0.039611302 1.5033333e-38 297 272
-0.027155625 0.704 -0.039499093 1.6416268e-38 298 272
-0.02592128 0.704 -0.039499093 1.6969441e-38 299 272
-0.024651866 0.70300001 -0.039442986 1.6142562e-38 300 272
-0.023352645 0.70099998 -0.039330769 1.595781e-38 301 272
-0.022123558 0.70099998 -0.039330769 1.5774512e-38 302 272
-0.020894472 0.70099998 -0.039330769 1.5959262e-38 303 272
-0.019665385 0.70099998 -0.039330769 1.2366886e-38 304 272
-0.018436298 0.70099998 -0.039330769 1.0707724e-38 305 272
-0.017182667 0.69999999 -0.039274666 1.2730277e-38 306 272
-0.015955333 0.69999999 -0.039274666 1.3560396e-38 307 272
-0.01468592 0.69800001 -0.039162453 1.4203242e-38 308 272
-0.013462093 0.69800001 -0.039162453 1.3742624e-38 309 272
-0.012238266 0.69800001 -0.039162453 1.3100135e-38 310 272
-0.01101444 0.69800001 -0.039162453 1.3007938e-38 311 272
-0.0097906133 0.69800001 -0.039162453 1.245692e-38 312 272
-0.0085667865 0.69800001 -0.039162453 1.245692e-38 313 272
-0.0073429602 0.69800001 -0.039162453 1.2548034e-38 314 272
-0.0061366665 0.69999999 -0.039274666 1.2364002e-38 315 272
-0.0049093333 0.69999999 -0.039274666 1.2823179e-38 316 272
-0.0036819996 0.69999999 -0.039274666 1.2730983e-38 317 272
-0.0024546667 0.69999999 -0.039274666 1.254839e-38 318 272
-0.0012273333 0.69999999 -0.039274666 1.254839e-38 319 272
0 0.69800001 -0.039162453 1.3373831e-38 320 272
0.0012238267 0.69800001 -0.039162453 1.3373831e-38 321 272
0.0024476533 0.69800001 -0.039162453 1.2823166e-38 322 272
0.0036819996 0.69999999 -0.039274666 1.2823166e-38 323 272
0.0049093333 0.69999999 -0.039274666 1.1812254e-38 324 272
0.0061366665 0.69999999 -0.039274666 1.1627863e-38 325 272
0.0073639993 0.69999999 -0.039274666 1.2084892e-38 326 272
0.0086036054 0.70099998 -0.039330769 9.3190215e-39 327 272
0.0098607466 0.70300001 -0.039442986 8.8576945e-39 328 272
0.011109119 0.704 -0.039499093 8.9498901e-39 329 272
0.012343466 0.704 -0.039499093 1.0247816e-38 330 272
0.013616386 0.70599997 -0.039611302 1.1999532e-38 331 272
0.01487528 0.70700002 -0.039667413 1.300431e-38 332 272
0.01613768 0.708 -0.039723519 1.2266745e-38 333 272
0.017428132 0.70999998 -0.039835732 1.2450768e-38 334 272
0.0186993 0.71100003 -0.039891839 1.2727354e-38 335 272
0.020002026 0.713 -0.040004052 1.2451837e-38 336 272
0.021341572 0.71600002 -0.040172372 1.3465988e-38 337 272
0.02262852 0.71700001 -0.040228479 1.6228248e-38 338 272
0.02388566 0.71700001 -0.040228479 2.0745474e-38 339 272
0.0251428 0.71700001 -0.040228479 2.2219868e-38 340 272
-0.040677335 0.72500002 -0.041948501 2.2864163e-38 288 273
-0.039134402 0.72000003 -0.041659199 2.1573424e-38 289 273
-0.037661601 0.71600002 -0.041427758 1.7334602e-38 290 273
-0.036304519 0.71399999 -0.041312039 1.5582526e-38 291 273
-0.035003547 0.713 -0.041254178 1.5677971e-38 292 273
-0.033658739 0.71100003 -0.041138459 1.6138589e-38 293 273
-0.032366529 0.70999998 -0.041080594 1.6046391e-38 294 273
-0.031034 0.708 -0.040964879 1.5493576e-38 295 273
-0.02979264 0.708 -0.040964879 1.4112456e-38 296 273
-0.028510952 0.70700002 -0.040907022 1.4204651e-38 297 273
-0.027232772 0.70599997 -0.040849157 1.4852186e-38 298 273
-0.02592128 0.704 -0.040733438 1.6050729e-38 299 273
-0.024651866 0.70300001 -0.040675577 1.6785776e-38 300 273
-0.023419274 0.70300001 -0.040675577 1.6324799e-38 301 273
-0.02218668 0.70300001 -0.040675577 1.6142927e-38 302 273
-0.020954086 0.70300001 -0.040675577 1.6235123e-38 303 273
-0.019721493 0.70300001 -0.040675577 1.1906264e-38 304 273
-0.018436298 0.70099998 -0.040559858 1.0338937e-38 305 273
-0.017207211 0.70099998 -0.040559858 1.1994509e-38 306 273
-0.015978126 0.70099998 -0.040559858 1.2916826e-38 307 273
-0.014727999 0.69999999 -0.040502001 1.3101217e-38 308 273
-0.013500666 0.69999999 -0.040502001 1.3377444e-38 309 273
-0.012238266 0.69800001 -0.040386278 1.3839501e-38 310 273
-0.01101444 0.69800001 -0.040386278 1.3839501e-38 311 273
-0.0097906133 0.69800001 -0.040386278 1.3197356e-38 312 273
-0.0085667865 0.69800001 -0.040386278 1.3381747e-38 313 273
-0.0073429602 0.69800001 -0.040386278 1.4022075e-38 314 273
-0.0061366665 0.69999999 -0.040502001 1.3192314e-38 315 273
-0.0049093333 0.69999999 -0.040502001 1.2642733e-38 316 273
-0.0036819996 0.69999999 -0.040502001 1.2827126e-38 317 273
-0.0024546667 0.69999999 -0.040502001 1.3096174e-38 318 273
-0.0012273333 0.69999999 -0.040502001 1.2082023e-38 319 273
0 0.69999999 -0.040502001 1.3461348e-38 320 273
0.0012273333 0.69999999 -0.040502001 1.3921966e-38 321 273
0.0024546667 0.69999999 -0.040502001 1.2819916e-38 322 273
0.0036819996 0.69999999 -0.040502001 1.2451134e-38 323 273
0.0049093333 0.69999999 -0.040502001 9.3280081e-39 324 273
0.0061454331 0.70099998 -0.040559858 9.4202037e-39 325 273
0.0073745195 0.70099998 -0.040559858 1.1347676e-38 326 273
0.0086036054 0.70099998 -0.040559858 9.2271762e-39 327 273
0.0098607466 0.70300001 -0.040675577 7.7545713e-39 328 273
0.011109119 0.704 -0.040733438 7.6623743e-39 329 273
0.012343466 0.704 -0.040733438 9.8765113e-39 330 273
0.013616386 0.70599997 -0.040849157 1.1997011e-38 331 273
0.01487528 0.70700002 -0.040907022 1.2267824e-38 332 273
0.01613768 0.708 -0.040964879 1.2083433e-38 333 273
0.017428132 0.70999998 -0.041080594 1.2084149e-38 334 273
0.018751899 0.713 -0.041254178 1.2360736e-38 335 273
0.020030079 0.71399999 -0.041312039 1.2821348e-38 336 273
0.021341572 0.71600002 -0.041427758 1.383514e-38 337 273
0.02262852 0.71700001 -0.041485619 1.6413005e-38 338 273
0.02388566 0.71700001 -0.041485619 2.1022787e-38 339 273
0.0251428 0.71700001 -0.041485619 2.2403904e-38 340 273
-0.039134402 0.72000003 -0.042921603 2.185109e-38 289 274
-0.037714198 0.71700001 -0.042742759 1.6874341e-38 290 274
-0.036406212 0.71600002 -0.042683143 1.3831884e-38 291 274
-0.035052639 0.71399999 -0.042563915 1.3929494e-38 292 274
-0.033753417 0.713 -0.042504307 1.5865602e-38 293 274
-0.032412119 0.71100003 -0.042385083 1.7244586e-38 294 274
-0.031121666 0.70999998 -0.042325463 1.7336782e-38 295 274
-0.02979264 0.708 -0.042206239 1.6234755e-38 296 274
-0.028510952 0.70700002 -0.042146627 1.5312797e-38 297 274
-0.027232772 0.70599997 -0.042087011 1.466959e-38 298 274
-0.02592128 0.704 -0.041967787 1.5499709e-38 299 274
-0.024686933 0.704 -0.041967787 1.6785779e-38 300 274
-0.023419274 0.70300001 -0.041908171 1.6416998e-38 301 274
-0.02218668 0.70300001 -0.041908171 1.5867783e-38 302 274
-0.020954086 0.70300001 -0.041908171 1.5959978e-38 303 274
-0.019721493 0.70300001 -0.041908171 1.1814419e-38 304 274
-0.018488899 0.70300001 -0.041908171 9.4176912e-39 305 274
-0.017207211 0.70099998 -0.041788943 9.2268553e-39 306 274
-0.015978126 0.70099998 -0.041788943 7.7513651e-39 307 274
-0.014727999 0.69999999 -0.041729331 4.7276377e-39 308 274
-0.013500666 0.69999999 -0.041729331 5.5577571e-39 309 274
-0.012273333 0.69999999 -0.041729331 7.7654075e-39 310 274
-0.011045999 0.69999999 -0.041729331 7.7654075e-39 311 274
-0.0098186666 0.69999999 -0.041729331 8.2278122e-39 312 274
-0.0085913334 0.69999999 -0.041729331 1.0440866e-38 313 274
-0.0073639993 0.69999999 -0.041729331 1.2271457e-38 314 274
-0.0061366665 0.69999999 -0.041729331 1.0703771e-38 315 274
-0.0049093333 0.69999999 -0.041729331 9.8836986e-39 316 274
-0.0036819996 0.69999999 -0.041729331 1.0621264e-38 317 274
-0.0024546667 0.69999999 -0.041729331 1.1344443e-38 318 274
-0.0012273333 0.69999999 -0.041729331 9.0391921e-39 319 274
0 0.69999999 -0.041729331 1.1231383e-38 320 274
0.0012273333 0.69999999 -0.041729331 1.1507969e-38 321 274
0.0024546667 0.69999999 -0.041729331 9.8578054e-39 322 274
0.0036819996 0.69999999 -0.041729331 1.124074e-38 323 274
0.0049163462 0.70099998 -0.041788943 7.3033196e-39 324 274
0.0061629666 0.70300001 -0.041908171 8.1330802e-39 325 274
0.0073955595 0.70300001 -0.041908171 1.0889224e-38 326 274
0.0086281532 0.70300001 -0.041908171 1.1073617e-38 327 274
0.0098607466 0.70300001 -0.041908171 1.2086317e-38 328 274
0.011109119 0.704 -0.041967787 1.2731686e-38 329 274
0.012378532 0.70599997 -0.042087011 1.2912838e-38 330 274
0.013616386 0.70599997 -0.042087011 1.2544054e-38 331 274
0.01487528 0.70700002 -0.042146627 1.2083433e-38 332 274
0.01613768 0.708 -0.042206239 1.2083433e-38 333 274
0.01745268 0.71100003 -0.042385083 1.2267822e-38 334 274
0.018751899 0.713 -0.042504307 1.2636604e-38 335 274
0.020030079 0.71399999 -0.042563915 1.2912462e-38 336 274
0.021371379 0.71700001 -0.042742759 1.3834777e-38 337 274
0.02262852 0.71700001 -0.042742759 1.6413005e-38 338 274
0.023952285 0.71899998 -0.042861983 2.1022787e-38 339 274
0.025212931 0.71899998 -0.042861983 2.2311708e-38 340 274
-0.039134402 0.72000003 -0.044183999 2.1943283e-38 289 275
-0.037714198 0.71700001 -0.043999899 1.6782142e-38 290 275
-0.036406212 0.71600002 -0.043938532 1.2910285e-38 291 275
-0.035052639 0.71399999 -0.043815799 1.0339988e-38 292 275
-0.033800758 0.71399999 -0.043815799 1.2737434e-38 293 275
-0.032503292 0.713 -0.043754432 1.6509915e-38 294 275
-0.031165501 0.71100003 -0.043631699 1.7339676e-38 295 275
-0.029876797 0.70999998 -0.043570329 1.7431145e-38 296 275
-0.02855128 0.708 -0.043447599 1.6785776e-38 297 275
-0.027232772 0.70599997 -0.043324865 1.5957813e-38 298 275
-0.025994917 0.70599997 -0.043324865 1.6234401e-38 299 275
-0.024686933 0.704 -0.043202132 1.6418435e-38 300 275
-0.023419274 0.70300001 -0.043140765 1.6234404e-38 301 275
-0.02218668 0.70300001 -0.043140765 1.6234767e-38 302 275
-0.020954086 0.70300001 -0.043140765 1.6327322e-38 303 275
-0.019749546 0.704 -0.043202132 1.3195191e-38 304 275
-0.018488899 0.70300001 -0.043140765 1.1719702e-38 305 275
-0.017256306 0.70300001 -0.043140765 1.0980011e-38 306 275
-0.016023712 0.70300001 -0.043140765 8.3985338e-39 307 275
-0.014749039 0.70099998 -0.043018032 5.2797451e-39 308 275
-0.013519952 0.70099998 -0.043018032 4.8187669e-39 309 275
-0.012273333 0.69999999 -0.042956665 5.1871893e-39 310 275
-0.011045999 0.69999999 -0.042956665 5.0027981e-39 311 275
-0.0098186666 0.69999999 -0.042956665 5.3748078e-39 312 275
-0.0085913334 0.69999999 -0.042956665 8.1406781e-39 313 275
-0.0073639993 0.69999999 -0.042956665 1.1626456e-38 314 275
-0.0061366665 0.69999999 -0.042956665 1.0427912e-38 315 275
-0.0049093333 0.69999999 -0.042956665 9.88333e-39 316 275
-0.0036819996 0.69999999 -0.042956665 1.0621254e-38 317 275
-0.0024546667 0.69999999 -0.042956665 1.1901203e-38 318 275
-0.0012273333 0.69999999 -0.042956665 1.0149486e-38 319 275
0 0.70099998 -0.043018032 9.8721799e-39 320 275
0.0012290865 0.70099998 -0.043018032 1.0333157e-38 321 275
0.0024581731 0.70099998 -0.043018032 1.0795578e-38 322 275
0.0036872597 0.70099998 -0.043018032 1.1533143e-38 323 275
0.0049303733 0.70300001 -0.043140765 1.153244e-38 324 275
0.0061629666 0.70300001 -0.043140765 1.1624635e-38 325 275
0.0073955595 0.70300001 -0.043140765 1.1809385e-38 326 275
0.0086281532 0.70300001 -0.043140765 1.1809385e-38 327 275
0.0098747732 0.704 -0.043202132 1.2360753e-38 328 275
0.011109119 0.704 -0.043202132 1.2729894e-38 329 275
0.012378532 0.70599997 -0.043324865 1.2545853e-38 330 275
0.013635674 0.70700002 -0.043386232 1.2084875e-38 331 275
0.01489632 0.708 -0.043447599 1.1807566e-38 332 275
0.016183265 0.70999998 -0.043570329 1.1991598e-38 333 275
0.017501773 0.713 -0.043754432 1.2267824e-38 334 275
0.018778199 0.71399999 -0.043815799 1.2544051e-38 335 275
0.020086186 0.71600002 -0.043938532 1.3095058e-38 336 275
0.021371379 0.71700001 -0.043999899 1.3924819e-38 337 275
0.022691639 0.71899998 -0.044122629 1.5586123e-38 338 275
0.023952285 0.71899998 -0.044122629 2.0195904e-38 339 275
0.025212931 0.71899998 -0.044122629 2.2679772e-38 340 275
-0.039134402 0.72000003 -0.045446403 2.2403541e-38 289 276
-0.037556399 0.71399999 -0.045067675 1.7518631e-38 290 276
-0.036253672 0.713 -0.045004558 1.3646415e-38 291 276
-0.035003547 0.713 -0.045004558 5.6427094e-39 292 276
-0.033753417 0.713 -0.045004558 5.9189362e-39 293 276
-0.032503292 0.713 -0.045004558 1.3287053e-38 294 276
-0.031165501 0.71100003 -0.044878319 1.5499748e-38 295 276
-0.029876797 0.70999998 -0.044815198 1.7155647e-38 296 276
-0.02855128 0.708 -0.044688959 1.6879421e-38 297 276
-0.027271347 0.70700002 -0.044625837 1.6878695e-38 298 276
-0.025994917 0.70599997 -0.044562716 1.6602108e-38 299 276
-0.024686933 0.704 -0.044436477 1.6418438e-38 300 276
-0.023452586 0.704 -0.044436477 1.6234407e-38 301 276
-0.02218668 0.70300001 -0.04437336 1.5959262e-38 302 276
-0.020954086 0.70300001 -0.04437336 1.6051458e-38 303 276
-0.019749546 0.704 -0.044436477 1.402352e-38 304 276
-0.018515198 0.704 -0.044436477 1.3009728e-38 305 276
-0.017256306 0.70300001 -0.04437336 1.3836254e-38 306 276
-0.016023712 0.70300001 -0.04437336 1.4020646e-38 307 276
-0.014749039 0.70099998 -0.044247117 1.328668e-38 308 276
-0.013519952 0.70099998 -0.044247117 1.3010094e-38 309 276
-0.012290866 0.70099998 -0.044247117 1.2734227e-38 310 276
-0.011045999 0.69999999 -0.044183996 1.2642031e-38 311 276
-0.0098186666 0.69999999 -0.044183996 1.2091374e-38 312 276
-0.0085913334 0.69999999 -0.044183996 1.2829299e-38 313 276
-0.0073639993 0.69999999 -0.044183996 1.282426e-38 314 276
-0.0061366665 0.69999999 -0.044183996 1.1441326e-38 315 276
-0.0049093333 0.69999999 -0.044183996 1.0525834e-38 316 276
-0.0036819996 0.69999999 -0.044183996 1.1539627e-38 317 276
-0.0024546667 0.69999999 -0.044183996 1.2364356e-38 318 276
-0.0012273333 0.69999999 -0.044183996 1.1626791e-38 319 276
0 0.70300001 -0.04437336 1.1718989e-38 320 276
0.0012325933 0.70300001 -0.04437336 1.2271804e-38 321 276
0.0024651866 0.70300001 -0.04437336 1.3283784e-38 322 276
0.0036977797 0.70300001 -0.04437336 1.3283784e-38 323 276
0.0049303733 0.70300001 -0.04437336 1.3463865e-38 324 276
0.0061717331 0.704 -0.044436477 1.337131e-38 325 276
0.0074060797 0.704 -0.044436477 1.2452598e-38 326 276
0.0086404262 0.704 -0.044436477 1.2268207e-38 327 276
0.0098747732 0.704 -0.044436477 1.1992332e-38 328 276
0.011109119 0.704 -0.044436477 1.1899778e-38 329 276
0.012378532 0.70599997 -0.044562716 1.1992679e-38 330 276
0.013635674 0.70700002 -0.044625837 1.1900484e-38 331 276
0.014938398 0.70999998 -0.044815198 1.1899038e-38 332 276
0.01620606 0.71100003 -0.044878319 1.2175626e-38 333 276
0.017501773 0.713 -0.045004558 1.2451137e-38 334 276
0.0188308 0.71600002 -0.045193922 1.2635528e-38 335 276
0.020086186 0.71600002 -0.045193922 1.3279455e-38 336 276
0.021371379 0.71700001 -0.045257039 1.3924825e-38 337 276
0.02262852 0.71700001 -0.045257039 1.5309179e-38 338 276
0.023952285 0.71899998 -0.045383278 2.0011156e-38 339 276
0.025212931 0.71899998 -0.045383278 2.2403191e-38 340 276
-0.038916986 0.71600002 -0.046449307 2.2956715e-38 289 277
-0.037556399 0.71399999 -0.046319555 1.8623893e-38 290 277
-0.036253672 0.713 -0.046254687 1.4659481e-38 291 277
-0.035003547 0.713 -0.046254687 8.3970695e-39 292 277
-0.033753417 0.713 -0.046254687 4.0638734e-39 293 277
-0.032503292 0.713 -0.046254687 3.4304151e-39 294 277
-0.031253166 0.713 -0.046254687 8.5933703e-39 295 277
-0.029876797 0.70999998 -0.046060063 1.4301924e-38 296 277
-0.02855128 0.708 -0.045930319 1.5777409e-38 297 277
-0.027309919 0.708 -0.045930319 1.7062014e-38 298 277
-0.02603174 0.70700002 -0.045865446 1.6785426e-38 299 277
-0.024757065 0.70599997 -0.04580057 1.6235486e-38 300 277
-0.023452586 0.704 -0.045670826 1.6051455e-38 301 277
-0.022218239 0.704 -0.045670826 1.5959625e-38 302 277
