# .PCD v.7 - Point Cloud Data file format
FIELDS x y z rgb imX imY
SIZE 4 4 4 4 4 4
TYPE F F F F F F
COUNT 1 1 1 1 1 1
WIDTH 831
HEIGHT 1
VIEWPOINT 0 0 0 1 0 0 0
POINTS 831
DATA ascii
0.0072377604 0.68800002 -0.0084440531 4.6929948e-39 326 247
0.0084440531 0.68800002 -0.0084440531 1.0685711e-38 327 247
0.0096503468 0.68800002 -0.0084440531 6.1839666e-39 328 247
0.010888199 0.69 -0.0084686 4.8010307e-39 329 247
0.012097999 0.69 -0.0084686 4.5218991e-39 330 247
0.013327086 0.69099998 -0.008480873 2.9545734e-39 331 247
0.014580719 0.69300002 -0.0085054198 1.2064339e-39 332 247
0.015818574 0.69400001 -0.0085176928 1.1142369e-39 333 247
0.017035386 0.69400001 -0.0085176928 3.2343874e-39 334 247
0.018331099 0.69700003 -0.0085545136 4.6173219e-39 335 247
0.019581227 0.69800001 -0.0085667865 7.6547358e-39 336 247
0.020954086 0.70300001 -0.0086281532 7.9316828e-39 337 247
0.02218668 0.70300001 -0.0086281532 7.2870267e-39 338 247
0.023519212 0.70599997 -0.0086649731 5.9040922e-39 339 247
0.024792133 0.70700002 -0.008677247 6.9150212e-39 340 247
0.02603174 0.70700002 -0.008677247 1.4659814e-38 341 247
0.027271347 0.70700002 -0.008677247 1.6595213e-38 342 247
-0.049654398 0.708 -0.0099308798 1.4931006e-38 280 248
-0.048344657 0.70700002 -0.0099168532 1.1427213e-38 281 248
-0.047105055 0.70700002 -0.0099168532 1.0036729e-38 282 248
-0.04580057 0.70599997 -0.0099028256 1.0958685e-38 283 248
-0.044436477 0.704 -0.0098747732 1.1144168e-38 284 248
-0.043140765 0.70300001 -0.0098607466 1.1697342e-38 285 248
-0.041729331 0.69999999 -0.0098186666 1.1692304e-38 286 248
-0.040386278 0.69800001 -0.0097906133 8.0044789e-39 287 248
-0.039106347 0.69700003 -0.0097765867 8.6397519e-39 288 248
-0.037884273 0.69700003 -0.0097765867 7.8096325e-39 289 248
-0.036504399 0.69400001 -0.0097345067 9.1889544e-39 290 248
-0.035287585 0.69400001 -0.0097345067 9.6499312e-39 291 248
-0.034021679 0.69300002 -0.0097204801 9.1911236e-39 292 248
-0.03280662 0.69300002 -0.0097204801 9.098928e-39 293 248
-0.031500384 0.69099998 -0.0096924258 9.0078254e-39 294 248
-0.030288832 0.69099998 -0.0096924258 8.7315972e-39 295 248
-0.029035198 0.69 -0.0096783992 9.0975057e-39 296 248
-0.027744746 0.68800002 -0.0096503468 8.7287246e-39 297 248
-0.026538454 0.68800002 -0.0096503468 9.0027919e-39 298 248
-0.025295338 0.68699998 -0.0096363192 9.0949876e-39 299 248
-0.024090799 0.68699998 -0.0096363192 9.0042381e-39 300 248
-0.022886258 0.68699998 -0.0096363192 9.0964337e-39 301 248
-0.021681719 0.68699998 -0.0096363192 9.0978686e-39 302 248
-0.020477179 0.68699998 -0.0096363192 9.3748156e-39 303 248
-0.019272638 0.68699998 -0.0096363192 9.1000266e-39 304 248
-0.018068098 0.68699998 -0.0096363192 9.8375917e-39 305 248
-0.01686356 0.68699998 -0.0096363192 1.0584875e-38 306 248
-0.015659019 0.68699998 -0.0096363192 8.0033971e-39 307 248
-0.014454478 0.68699998 -0.0096363192 8.6347171e-39 308 248
-0.013249939 0.68699998 -0.0096363192 8.8187482e-39 309 248
-0.012045399 0.68699998 -0.0096363192 8.9109284e-39 310 248
-0.010825079 0.68599999 -0.0096222926 8.8187328e-39 311 248
-0.0096222926 0.68599999 -0.0096222926 8.7258267e-39 312 248
-0.0084195063 0.68599999 -0.0096222926 8.7258267e-39 313 248
-0.0072167199 0.68599999 -0.0096222926 8.8180265e-39 314 248
-0.0060139326 0.68599999 -0.0096222926 8.8180265e-39 315 248
-0.0048111463 0.68599999 -0.0096222926 8.6350674e-39 316 248
-0.00360836 0.68599999 -0.0096222926 8.6350674e-39 317 248
-0.0024055731 0.68599999 -0.0096222926 8.8183796e-39 318 248
-0.0012045399 0.68699998 -0.0096363192 8.8183796e-39 319 248
0 0.68699998 -0.0096363192 8.6350674e-39 320 248
0.0012045399 0.68699998 -0.0096363192 8.6350674e-39 321 248
0.0024125867 0.68800002 -0.0096503468 8.5432347e-39 322 248
0.0036188802 0.68800002 -0.0096503468 8.4510377e-39 323 248
0.0048251734 0.68800002 -0.0096503468 7.6248769e-39 324 248
0.0060314666 0.68800002 -0.0096503468 6.7958337e-39 325 248
0.0072587994 0.69 -0.0096783992 4.6929948e-39 326 248
0.0084686 0.69 -0.0096783992 1.0408765e-38 327 248
0.0096924258 0.69099998 -0.0096924258 3.4213375e-39 328 248
0.01090398 0.69099998 -0.0096924258 6.497821e-42 329 248
0.012115533 0.69099998 -0.0096924258 1.0439674e-41 330 248
0.01336566 0.69300002 -0.0097204801 1.9915254e-40 331 248
0.014580719 0.69300002 -0.0097204801 3.7832648e-39 332 248
0.015818574 0.69400001 -0.0097345067 6.2725468e-39 333 248
0.017035386 0.69400001 -0.0097345067 7.7473e-39 334 248
0.018331099 0.69700003 -0.0097765867 7.7473e-39 335 248
0.019553173 0.69700003 -0.0097765867 7.5618185e-39 336 248
0.021043506 0.70599997 -0.0099028256 7.4696229e-39 337 248
0.022281358 0.70599997 -0.0099028256 7.6558078e-39 338 248
0.023519212 0.70599997 -0.0099028256 7.0104384e-39 339 248
-0.049794663 0.70999998 -0.011203799 1.5023206e-38 280 249
-0.048549797 0.70999998 -0.011203799 1.2072586e-38 281 249
-0.047171678 0.708 -0.01117224 1.040443e-38 282 249
-0.045865446 0.70700002 -0.011156459 1.0312234e-38 283 249
-0.044562716 0.70599997 -0.011140679 1.0495929e-38 284 249
-0.043140765 0.70300001 -0.01109334 1.1325689e-38 285 249
-0.041788943 0.70099998 -0.011061779 1.1603002e-38 286 249
-0.040502001 0.69999999 -0.011045999 1.0312263e-38 287 249
-0.039162453 0.69800001 -0.01101444 1.0217517e-38 288 249
-0.037884273 0.69700003 -0.01099866 8.5583561e-39 289 249
-0.036609598 0.69599998 -0.010982879 1.0019437e-38 290 249
-0.035287585 0.69400001 -0.01095132 1.0019437e-38 291 249
-0.034021679 0.69300002 -0.010935539 9.4651994e-39 292 249
-0.03280662 0.69300002 -0.010935539 9.1882538e-39 293 249
-0.031500384 0.69099998 -0.01090398 8.8223579e-39 294 249
-0.030288832 0.69099998 -0.01090398 8.8223579e-39 295 249
-0.029077278 0.69099998 -0.01090398 9.0985749e-39 296 249
-0.027825398 0.69 -0.010888199 8.8223481e-39 297 249
-0.026538454 0.68800002 -0.010856641 9.2797333e-39 298 249
-0.025295338 0.68699998 -0.010840859 9.1875377e-39 299 249
-0.024090799 0.68699998 -0.010840859 9.1879006e-39 300 249
-0.022886258 0.68699998 -0.010840859 9.1879006e-39 301 249
-0.021681719 0.68699998 -0.010840859 9.0052946e-39 302 249
-0.020477179 0.68699998 -0.010840859 9.0974903e-39 303 249
-0.019272638 0.68699998 -0.010840859 9.0056604e-39 304 249
-0.018068098 0.68699998 -0.010840859 9.7432254e-39 305 249
-0.01686356 0.68699998 -0.010840859 1.0767107e-38 306 249
-0.015659019 0.68699998 -0.010840859 8.5540527e-39 307 249
-0.014454478 0.68699998 -0.010840859 8.6347171e-39 308 249
-0.013249939 0.68699998 -0.010840859 8.9109438e-39 309 249
-0.012045399 0.68699998 -0.010840859 8.8183768e-39 310 249
-0.010840859 0.68699998 -0.010840859 8.8183768e-39 311 249
-0.0096222926 0.68599999 -0.010825079 9.0016947e-39 312 249
-0.0084195063 0.68599999 -0.010825079 9.0016947e-39 313 249
-0.0072167199 0.68599999 -0.010825079 8.8183824e-39 314 249
-0.0060139326 0.68599999 -0.010825079 8.8183824e-39 315 249
-0.0048181596 0.68699998 -0.010840859 8.8183796e-39 316 249
-0.0036136196 0.68699998 -0.010840859 8.9105753e-39 317 249
-0.0024090798 0.68699998 -0.010840859 8.8183796e-39 318 249
-0.0012045399 0.68699998 -0.010840859 8.8183796e-39 319 249
0 0.68800002 -0.010856641 8.6347115e-39 320 249
0.0012062934 0.68800002 -0.010856641 8.6347115e-39 321 249
0.0024125867 0.68800002 -0.010856641 8.5432347e-39 322 249
0.0036293997 0.69 -0.010888199 8.4510377e-39 323 249
0.0048391996 0.69 -0.010888199 7.8081892e-39 324 249
0.0060489997 0.69 -0.010888199 7.1631785e-39 325 249
0.0072587994 0.69 -0.010888199 4.6929892e-39 326 249
0.0084686 0.69 -0.010888199 1.0040694e-38 327 249
0.0096924258 0.69099998 -0.01090398 3.605356e-39 328 249
0.010935539 0.69300002 -0.010935539 7.9257441e-42 329 249
0.012150601 0.69300002 -0.010935539 1.0806814e-41 330 249
0.01336566 0.69300002 -0.010935539 3.8174873e-40 331 249
0.014580719 0.69300002 -0.010935539 3.4206088e-39 332 249
0.015818574 0.69400001 -0.01095132 4.9882932e-39 333 249
0.017035386 0.69400001 -0.01095132 5.9981039e-39 334 249
0.018436298 0.70099998 -0.011061779 6.090301e-39 335 249
0.019805651 0.70599997 -0.011140679 7.9280801e-39 336 249
0.021043506 0.70599997 -0.011140679 8.4812525e-39 337 249
0.022281358 0.70599997 -0.011140679 7.8402004e-39 338 249
-0.047171678 0.708 -0.0124136 1.1235269e-38 282 250
-0.045930319 0.708 -0.0124136 1.0221117e-38 283 250
-0.044562716 0.70599997 -0.012378532 1.0031338e-38 284 250
-0.043202132 0.704 -0.012343466 1.039976e-38 285 250
-0.041908171 0.70300001 -0.012325933 1.0494855e-38 286 250
-0.040559858 0.70099998 -0.012290866 1.1601203e-38 287 250
-0.039162453 0.69800001 -0.012238266 1.1882099e-38 288 250
-0.037884273 0.69700003 -0.012220734 1.1421122e-38 289 250
-0.036609598 0.69599998 -0.0122032 1.168943e-38 290 250
-0.035287585 0.69400001 -0.012168133 1.0491246e-38 291 250
-0.034021679 0.69300002 -0.012150601 9.7468534e-39 292 250
-0.03280662 0.69300002 -0.012150601 8.0876922e-39 293 250
-0.031591557 0.69300002 -0.012150601 7.8110857e-39 294 250
-0.030288832 0.69099998 -0.012115533 7.9032813e-39 295 250
-0.029077278 0.69099998 -0.012115533 9.0052918e-39 296 250
-0.027825398 0.69 -0.012097999 9.0052918e-39 297 250
-0.026538454 0.68800002 -0.012062933 9.3729982e-39 298 250
-0.02533216 0.68800002 -0.012062933 9.4651938e-39 299 250
-0.024125867 0.68800002 -0.012062933 9.0996511e-39 300 250
-0.022886258 0.68699998 -0.012045399 9.0074554e-39 301 250
-0.021681719 0.68699998 -0.012045399 9.1911264e-39 302 250
-0.020477179 0.68699998 -0.012045399 9.2833221e-39 303 250
-0.019272638 0.68699998 -0.012045399 9.3751786e-39 304 250
-0.018068098 0.68699998 -0.012045399 9.7443212e-39 305 250
-0.01686356 0.68699998 -0.012045399 1.0951149e-38 306 250
-0.015659019 0.68699998 -0.012045399 8.7380936e-39 307 250
-0.014454478 0.68699998 -0.012045399 8.63508e-39 308 250
-0.013249939 0.68699998 -0.012045399 8.81983e-39 309 250
-0.012045399 0.68699998 -0.012045399 8.9105753e-39 310 250
-0.010840859 0.68699998 -0.012045399 8.8183796e-39 311 250
-0.0096363192 0.68699998 -0.012045399 9.0013388e-39 312 250
-0.0084317802 0.68699998 -0.012045399 9.0013388e-39 313 250
-0.0072272392 0.68699998 -0.012045399 8.8183824e-39 314 250
-0.0060226996 0.68699998 -0.012045399 8.9105781e-39 315 250
-0.0048181596 0.68699998 -0.012045399 8.8190957e-39 316 250
-0.0036136196 0.68699998 -0.012045399 8.8190957e-39 317 250
-0.0024125867 0.68800002 -0.012062933 8.9109312e-39 318 250
-0.0012062934 0.68800002 -0.012062933 8.9109312e-39 319 250
0 0.68800002 -0.012062933 8.6350674e-39 320 250
0.0012062934 0.68800002 -0.012062933 8.6350674e-39 321 250
0.0024195998 0.69 -0.012097999 8.5432347e-39 322 250
0.0036346598 0.69099998 -0.012115533 8.5432347e-39 323 250
0.0048462129 0.69099998 -0.012115533 7.9003848e-39 324 250
0.0060577663 0.69099998 -0.012115533 6.9795061e-39 325 250
0.0072693196 0.69099998 -0.012115533 4.7855436e-39 326 250
0.008480873 0.69099998 -0.012115533 1.0040694e-38 327 250
0.0097204801 0.69300002 -0.012150601 3.6975544e-39 328 250
0.010935539 0.69300002 -0.012150601 9.3704828e-42 329 250
0.012150601 0.69300002 -0.012150601 1.1877406e-41 330 250
0.01336566 0.69300002 -0.012150601 2.8918456e-40 331 250
0.014580719 0.69300002 -0.012150601 3.235479e-39 332 250
0.015864158 0.69599998 -0.0122032 3.8808485e-39 333 250
0.017182667 0.69999999 -0.012273333 5.2580222e-39 334 250
0.018436298 0.70099998 -0.012290866 5.9955872e-39 335 250
0.019749546 0.704 -0.012343466 8.6656507e-39 336 250
0.020983893 0.704 -0.012343466 9.1262687e-39 337 250
0.022218239 0.704 -0.012343466 7.7480034e-39 338 250
0.023452586 0.704 -0.012343466 7.0104384e-39 339 250
-0.048618179 0.71100003 -0.01371282 1.290487e-38 281 251
-0.047304932 0.70999998 -0.013693533 1.1972837e-38 282 251
-0.045930319 0.708 -0.013654959 1.1234913e-38 283 251
-0.044562716 0.70599997 -0.013616386 1.122736e-38 284 251
-0.043202132 0.704 -0.013577812 1.0212848e-38 285 251
-0.041908171 0.70300001 -0.013558527 1.048837e-38 286 251
-0.040559858 0.70099998 -0.013519952 1.1133739e-38 287 251
-0.039162453 0.69800001 -0.013462093 1.0028119e-38 288 251
-0.037884273 0.69700003 -0.013442807 1.021215e-38 289 251
-0.036609598 0.69599998 -0.013423519 1.0865786e-38 290 251
-0.035287585 0.69400001 -0.013384946 1.141896e-38 291 251
-0.034021679 0.69300002 -0.01336566 1.0405531e-38 292 251
-0.03280662 0.69300002 -0.01336566 1.0405531e-38 293 251
-0.031591557 0.69300002 -0.01336566 1.0311533e-38 294 251
-0.030288832 0.69099998 -0.013327086 9.11299e-39 295 251
-0.029077278 0.69099998 -0.013327086 9.6571605e-39 296 251
-0.027865725 0.69099998 -0.013327086 8.6433673e-39 297 251
-0.026615599 0.69 -0.0133078 9.0071079e-39 298 251
-0.02533216 0.68800002 -0.013269227 8.7301623e-39 299 251
-0.024125867 0.68800002 -0.013269227 8.6394142e-39 300 251
-0.022919573 0.68800002 -0.013269227 8.2709918e-39 301 251
-0.021681719 0.68699998 -0.013249939 8.63618e-39 302 251
-0.020477179 0.68699998 -0.013249939 8.728377e-39 303 251
-0.019300694 0.68800002 -0.013269227 8.8191363e-39 304 251
-0.0180944 0.68800002 -0.013269227 1.001768e-38 305 251
-0.016888106 0.68800002 -0.013269227 1.0859316e-38 306 251
-0.015659019 0.68699998 -0.013249939 8.7388153e-39 307 251
-0.014454478 0.68699998 -0.013249939 8.7280001e-39 308 251
-0.013249939 0.68699998 -0.013249939 8.8201957e-39 309 251
-0.012045399 0.68699998 -0.013249939 8.9112969e-39 310 251
-0.010840859 0.68699998 -0.013249939 8.8191013e-39 311 251
-0.0096363192 0.68699998 -0.013249939 8.8180293e-39 312 251
-0.0084317802 0.68699998 -0.013249939 8.8180293e-39 313 251
-0.0072272392 0.68699998 -0.013249939 8.9105781e-39 314 251
-0.0060226996 0.68699998 -0.013249939 8.9105781e-39 315 251
-0.0048181596 0.68699998 -0.013249939 8.7279791e-39 316 251
-0.0036136196 0.68699998 -0.013249939 8.7279791e-39 317 251
-0.0024125867 0.68800002 -0.013269227 8.7279819e-39 318 251
-0.0012062934 0.68800002 -0.013269227 8.6357862e-39 319 251
0 0.68800002 -0.013269227 8.6357862e-39 320 251
0.0012062934 0.68800002 -0.013269227 8.6357862e-39 321 251
0.0024195998 0.69 -0.0133078 8.5432347e-39 322 251
0.0036346598 0.69099998 -0.013327086 8.4510377e-39 323 251
0.0048462129 0.69099998 -0.013327086 7.7167194e-39 324 251
0.0060577663 0.69099998 -0.013327086 6.8876762e-39 325 251
0.0072903596 0.69300002 -0.01336566 4.7851904e-39 326 251
0.0085054198 0.69300002 -0.01336566 1.0040341e-38 327 251
0.0097204801 0.69300002 -0.01336566 3.7879522e-39 328 251
0.010935539 0.69300002 -0.01336566 2.8415951e-40 329 251
0.012150601 0.69300002 -0.01336566 2.219888e-39 330 251
0.01336566 0.69300002 -0.01336566 3.3258768e-39 331 251
0.01460176 0.69400001 -0.013384946 5.5381992e-39 332 251
0.015909746 0.69800001 -0.013462093 5.8151448e-39 333 251
0.017182667 0.69999999 -0.013500666 6.3668682e-39 334 251
0.018436298 0.70099998 -0.013519952 7.0122376e-39 335 251
0.019749546 0.704 -0.013577812 7.9323989e-39 336 251
0.020983893 0.704 -0.013577812 7.9323989e-39 337 251
0.022218239 0.704 -0.013577812 8.2075564e-39 338 251
-0.048618179 0.71100003 -0.014959441 1.3181461e-38 281 252
-0.047304932 0.70999998 -0.014938398 1.2063958e-38 282 252
-0.045930319 0.708 -0.01489632 1.1510424e-38 283 252
-0.044562716 0.70599997 -0.014854239 1.1782332e-38 284 252
-0.043324865 0.70599997 -0.014854239 1.076782e-38 285 252
-0.041908171 0.70300001 -0.014791119 1.1132293e-38 286 252
-0.040559858 0.70099998 -0.014749039 1.0025946e-38 287 252
-0.039274666 0.69999999 -0.014727999 9.2865857e-39 288 252
-0.037938625 0.69800001 -0.01468592 8.0880425e-39 289 252
-0.036662199 0.69700003 -0.01466488 9.1079552e-39 290 252
-0.035389278 0.69599998 -0.014643839 1.0951868e-38 291 252
-0.034070771 0.69400001 -0.01460176 1.0957998e-38 292 252
-0.03280662 0.69300002 -0.014580719 1.2248737e-38 293 252
-0.031591557 0.69300002 -0.014580719 1.1699879e-38 294 252
-0.0303765 0.69300002 -0.014580719 1.1423293e-38 295 252
-0.029077278 0.69099998 -0.014538639 1.1604437e-38 296 252
-0.027865725 0.69099998 -0.014538639 1.0498448e-38 297 252
-0.026654173 0.69099998 -0.014538639 9.9405899e-39 298 252
-0.025405798 0.69 -0.014517599 8.9260778e-39 299 252
-0.024195999 0.69 -0.014517599 8.4607879e-39 300 252
-0.022919573 0.68800002 -0.014475521 7.6310258e-39 301 252
-0.021681719 0.68699998 -0.014454478 7.3526411e-39 302 252
-0.020477179 0.68699998 -0.014454478 7.3526411e-39 303 252
-0.019300694 0.68800002 -0.014475521 7.5345156e-39 304 252
-0.0180944 0.68800002 -0.014475521 8.6408632e-39 305 252
-0.016888106 0.68800002 -0.014475521 1.0307214e-38 306 252
-0.015681813 0.68800002 -0.014475521 8.6480532e-39 307 252
-0.014475521 0.68800002 -0.014475521 8.6372338e-39 308 252
-0.013269227 0.68800002 -0.014475521 8.9134619e-39 309 252
-0.012062933 0.68800002 -0.014475521 9.187158e-39 310 252
-0.010856641 0.68800002 -0.014475521 8.8183768e-39 311 252
-0.0096503468 0.68800002 -0.014475521 8.8180265e-39 312 252
-0.0084317802 0.68699998 -0.014454478 8.9102221e-39 313 252
-0.0072272392 0.68699998 -0.014454478 8.9105753e-39 314 252
-0.0060226996 0.68699998 -0.014454478 8.9105753e-39 315 252
-0.0048251734 0.68800002 -0.014475521 8.7279819e-39 316 252
-0.0036188802 0.68800002 -0.014475521 8.8201775e-39 317 252
-0.0024125867 0.68800002 -0.014475521 8.7279847e-39 318 252
-0.0012062934 0.68800002 -0.014475521 8.6354303e-39 319 252
0 0.69 -0.014517599 8.8190957e-39 320 252
0.0012097999 0.69 -0.014517599 8.8190957e-39 321 252
0.0024231065 0.69099998 -0.014538639 8.6357862e-39 322 252
0.0036346598 0.69099998 -0.014538639 8.5435906e-39 323 252
0.00486024 0.69300002 -0.014580719 8.1758997e-39 324 252
0.0060753003 0.69300002 -0.014580719 7.2550196e-39 325 252
0.0072903596 0.69300002 -0.014580719 4.7848247e-39 326 252
0.0085054198 0.69300002 -0.014580719 9.9474212e-39 327 252
0.0097345067 0.69400001 -0.01460176 3.6039056e-39 328 252
0.01095132 0.69400001 -0.01460176 4.6961295e-40 329 252
0.012168133 0.69400001 -0.01460176 3.8776016e-39 330 252
0.013384946 0.69400001 -0.01460176 5.8137099e-39 331 252
0.01466488 0.69700003 -0.01466488 7.0115216e-39 332 252
0.015909746 0.69800001 -0.01468592 6.9189658e-39 333 252
0.017182667 0.69999999 -0.014727999 6.3715402e-39 334 252
0.018409999 0.69999999 -0.014727999 6.5559314e-39 335 252
0.019749546 0.704 -0.014812159 6.370115e-39 336 252
0.020983893 0.704 -0.014812159 6.9232888e-39 337 252
-0.053020801 0.72000003 -0.0164112 1.7885955e-38 278 253
-0.048618179 0.71100003 -0.01620606 1.3734634e-38 281 253
-0.047304932 0.70999998 -0.016183265 1.2341992e-38 282 253
-0.045930319 0.708 -0.01613768 1.0958699e-38 283 253
-0.044562716 0.70599997 -0.016092092 1.1780547e-38 284 253
-0.043324865 0.70599997 -0.016092092 1.1319927e-38 285 253
-0.041967787 0.704 -0.016046507 1.0764584e-38 286 253
-0.040675577 0.70300001 -0.016023712 1.0119215e-38 287 253
-0.039274666 0.69999999 -0.015955333 9.9276335e-39 288 253
-0.037938625 0.69800001 -0.015909746 9.8354365e-39 289 253
-0.036662199 0.69700003 -0.015886955 9.654292e-39 290 253
-0.035389278 0.69599998 -0.015864158 9.4699008e-39 291 253
-0.034070771 0.69400001 -0.015818574 7.8147122e-39 292 253
-0.032853961 0.69400001 -0.015818574 9.5664278e-39 293 253
-0.031591557 0.69300002 -0.015795778 9.3006477e-39 294 253
-0.0303765 0.69300002 -0.015795778 9.8538215e-39 295 253
-0.029161438 0.69300002 -0.015795778 1.0132201e-38 296 253
-0.027865725 0.69099998 -0.015750192 1.0316951e-38 297 253
-0.026654173 0.69099998 -0.015750192 1.0042153e-38 298 253
-0.025442619 0.69099998 -0.015750192 1.0687523e-38 299 253
-0.024195999 0.69 -0.015727401 1.0872991e-38 300 253
-0.022986198 0.69 -0.015727401 1.1057384e-38 301 253
-0.021713281 0.68800002 -0.015681813 1.0689323e-38 302 253
-0.020506985 0.68800002 -0.015681813 1.078152e-38 303 253
-0.019300694 0.68800002 -0.015681813 1.1146336e-38 304 253
-0.0180944 0.68800002 -0.015681813 9.5790115e-39 305 253
-0.016888106 0.68800002 -0.015681813 9.0279845e-39 306 253
-0.015681813 0.68800002 -0.015681813 6.7230951e-39 307 253
-0.014475521 0.68800002 -0.015681813 8.8180419e-39 308 253
-0.013269227 0.68800002 -0.015681813 9.0027919e-39 309 253
-0.012062933 0.68800002 -0.015681813 9.0027765e-39 310 253
-0.010856641 0.68800002 -0.015681813 8.9102221e-39 311 253
-0.0096503468 0.68800002 -0.015681813 9.0938931e-39 312 253
-0.0084440531 0.68800002 -0.015681813 9.0938931e-39 313 253
-0.0072377604 0.68800002 -0.015681813 8.9112969e-39 314 253
-0.0060314666 0.68800002 -0.015681813 8.9112969e-39 315 253
-0.0048251734 0.68800002 -0.015681813 8.7287035e-39 316 253
-0.0036188802 0.68800002 -0.015681813 8.6361492e-39 317 253
-0.0024125867 0.68800002 -0.015681813 8.7283476e-39 318 253
-0.0012097999 0.69 -0.015727401 8.636152e-39 319 253
0 0.69 -0.015727401 8.6365051e-39 320 253
0.0012097999 0.69 -0.015727401 8.6365051e-39 321 253
0.0024231065 0.69099998 -0.015750192 8.6361492e-39 322 253
0.0036451798 0.69300002 -0.015795778 8.4521181e-39 323 253
0.00486024 0.69300002 -0.015795778 7.7174397e-39 324 253
0.0060753003 0.69300002 -0.015795778 6.9798733e-39 325 253
0.0072903596 0.69300002 -0.015795778 4.8773833e-39 326 253
0.0085054198 0.69300002 -0.015795778 9.9481429e-39 327 253
0.0097345067 0.69400001 -0.015818574 3.6957565e-39 328 253
0.01095132 0.69400001 -0.015818574 6.8509482e-42 329 253
0.0122032 0.69599998 -0.015864158 3.9715993e-39 330 253
0.013442807 0.69700003 -0.015886955 7.3828376e-39 331 253
0.01468592 0.69800001 -0.015909746 6.6431076e-39 332 253
0.015909746 0.69800001 -0.015909746 5.3523688e-39 333 253
0.017182667 0.69999999 -0.015955333 3.0597198e-39 334 253
0.018409999 0.69999999 -0.015955333 3.9816761e-39 335 253
0.019749546 0.704 -0.016046507 7.1033795e-39 336 253
0.020983893 0.704 -0.016046507 8.5785096e-39 337 253
-0.053020801 0.72000003 -0.017673599 1.7885955e-38 278 254
-0.051758397 0.72000003 -0.017673599 1.8069988e-38 279 254
-0.050425861 0.71899998 -0.017649053 1.5763305e-38 280 254
-0.04902846 0.71700001 -0.017599959 1.4011588e-38 281 254
-0.047504812 0.713 -0.017501773 1.243635e-38 282 254
-0.046124939 0.71100003 -0.01745268 1.1053414e-38 283 254
-0.044688959 0.708 -0.017379038 1.1507543e-38 284 254
-0.043386232 0.70700002 -0.017354494 1.0862173e-38 285 254
-0.041967787 0.704 -0.017280852 1.1501044e-38 286 254
-0.040675577 0.70300001 -0.017256306 9.6567709e-39 287 254
-0.039330769 0.70099998 -0.017207211 9.5581139e-39 288 254
-0.038047329 0.69999999 -0.017182667 1.0203483e-38 289 254
-0.036662199 0.69700003 -0.017109027 9.561725e-39 290 254
-0.035440128 0.69700003 -0.017109027 9.4695294e-39 291 254
-0.034168959 0.69599998 -0.017084479 8.7294588e-39 292 254
-0.032853961 0.69400001 -0.017035386 8.8216545e-39 293 254
-0.031591557 0.69300002 -0.01701084 9.6629436e-39 294 254
-0.0303765 0.69300002 -0.01701084 1.0400509e-38 295 254
-0.029161438 0.69300002 -0.01701084 9.7594609e-39 296 254
-0.027865725 0.69099998 -0.016961746 1.0127883e-38 297 254
-0.026654173 0.69099998 -0.016961746 1.012788e-38 298 254
-0.025442619 0.69099998 -0.016961746 1.0958001e-38 299 254
-0.024231065 0.69099998 -0.016961746 1.1604813e-38 300 254
-0.022986198 0.69 -0.0169372 1.1973595e-38 301 254
-0.021776399 0.69 -0.0169372 1.1515854e-38 302 254
-0.020566599 0.69 -0.0169372 1.1515854e-38 303 254
-0.019356798 0.69 -0.0169372 1.1143114e-38 304 254
-0.018146999 0.69 -0.0169372 1.040519e-38 305 254
-0.016888106 0.68800002 -0.016888106 1.0400859e-38 306 254
-0.015681813 0.68800002 -0.016888106 8.3725551e-39 307 254
-0.014475521 0.68800002 -0.016888106 8.8205461e-39 308 254
-0.013269227 0.68800002 -0.016888106 8.9127417e-39 309 254
-0.012062933 0.68800002 -0.016888106 9.0031268e-39 310 254
-0.010856641 0.68800002 -0.016888106 8.9109312e-39 311 254
-0.0096503468 0.68800002 -0.016888106 8.9112969e-39 312 254
-0.0084440531 0.68800002 -0.016888106 8.9112969e-39 313 254
-0.0072377604 0.68800002 -0.016888106 8.9112941e-39 314 254
-0.0060314666 0.68800002 -0.016888106 9.0034898e-39 315 254
-0.0048251734 0.68800002 -0.016888106 8.7287035e-39 316 254
-0.0036188802 0.68800002 -0.016888106 8.7287035e-39 317 254
-0.0024125867 0.68800002 -0.016888106 8.8201803e-39 318 254
-0.0012097999 0.69 -0.0169372 8.8201803e-39 319 254
0 0.69099998 -0.016961746 8.6365051e-39 320 254
0.0012115532 0.69099998 -0.016961746 8.6365051e-39 321 254
0.0024231065 0.69099998 -0.016961746 8.4521181e-39 322 254
0.0036451798 0.69300002 -0.01701084 8.4521181e-39 323 254
0.00486024 0.69300002 -0.01701084 7.9922287e-39 324 254
0.0060753003 0.69300002 -0.01701084 7.3468593e-39 325 254
0.0072903596 0.69300002 -0.01701084 4.7862624e-39 326 254
0.0085176928 0.69400001 -0.017035386 9.5804366e-39 327 254
0.0097625591 0.69599998 -0.017084479 3.6957537e-39 328 254
0.010982879 0.69599998 -0.017084479 7.2082793e-42 329 254
0.0122032 0.69599998 -0.017084479 2.9603243e-39 330 254
0.013442807 0.69700003 -0.017109027 6.5555937e-39 331 254
0.01468592 0.69800001 -0.017133573 7.1001145e-39 332 254
0.015955333 0.69999999 -0.017182667 5.624983e-39 333 254
0.017182667 0.69999999 -0.017182667 4.1577815e-39 334 254
0.018436298 0.70099998 -0.017207211 5.7254673e-39 335 254
0.019749546 0.704 -0.017280852 7.9356639e-39 336 254
0.020983893 0.704 -0.017280852 7.7509139e-39 337 254
-0.053020801 0.72000003 -0.018935999 1.7885958e-38 278 255
-0.05168651 0.71899998 -0.018909698 1.7885958e-38 279 255
-0.0502856 0.71700001 -0.018857099 1.5487792e-38 280 255
-0.04902846 0.71700001 -0.018857099 1.3920108e-38 281 255
-0.047504812 0.713 -0.018751899 1.2437422e-38 282 255
-0.046254687 0.713 -0.018751899 1.1238879e-38 283 255
-0.044815198 0.70999998 -0.018672999 1.2059998e-38 284 255
-0.043447599 0.708 -0.0186204 1.1598659e-38 285 255
-0.042146627 0.70700002 -0.018594101 1.1228785e-38 286 255
-0.040733438 0.704 -0.018515198 9.6614611e-39 287 255
-0.039442986 0.70300001 -0.018488899 1.039111e-38 288 255
-0.038047329 0.69999999 -0.018409999 1.039111e-38 289 255
-0.0367148 0.69800001 -0.0183574 9.7478973e-39 290 255
-0.035440128 0.69700003 -0.018331099 9.4709517e-39 291 255
-0.034168959 0.69599998 -0.018304799 9.5602915e-39 292 255
-0.032948639 0.69599998 -0.018304799 9.8372385e-39 293 255
-0.031637147 0.69400001 -0.0182522 9.750103e-39 294 255
-0.0303765 0.69300002 -0.018225901 1.0303277e-38 295 255
-0.029161438 0.69300002 -0.018225901 1.0121048e-38 296 255
-0.027946379 0.69300002 -0.018225901 1.0397993e-38 297 255
-0.026654173 0.69099998 -0.0181733 1.0215044e-38 298 255
-0.025442619 0.69099998 -0.0181733 1.0122848e-38 299 255
-0.024231065 0.69099998 -0.0181733 9.8455384e-39 300 255
-0.023019511 0.69099998 -0.0181733 1.0029931e-38 301 255
-0.021776399 0.69 -0.018146999 9.7572931e-39 302 255
-0.020566599 0.69 -0.018146999 9.5725431e-39 303 255
-0.019356798 0.69 -0.018146999 8.4597313e-39 304 255
-0.018146999 0.69 -0.018146999 8.6441226e-39 305 255
-0.0169372 0.69 -0.018146999 1.0211794e-38 306 255
-0.015727401 0.69 -0.018146999 9.2901982e-39 307 255
-0.014517599 0.69 -0.018146999 8.7272784e-39 308 255
-0.0133078 0.69 -0.018146999 9.0035052e-39 309 255
-0.012097999 0.69 -0.018146999 9.0027765e-39 310 255
-0.010856641 0.68800002 -0.0180944 8.9102221e-39 311 255
-0.0096503468 0.68800002 -0.0180944 8.9102249e-39 312 255
-0.0084440531 0.68800002 -0.0180944 9.0024206e-39 313 255
-0.0072377604 0.68800002 -0.0180944 8.910941e-39 314 255
-0.0060314666 0.68800002 -0.0180944 8.910941e-39 315 255
-0.0048251734 0.68800002 -0.0180944 8.7283476e-39 316 255
-0.0036293997 0.69 -0.018146999 8.7283476e-39 317 255
-0.0024195998 0.69 -0.018146999 8.7287035e-39 318 255
-0.0012115532 0.69099998 -0.0181733 8.7287035e-39 319 255
0 0.69099998 -0.0181733 8.7287035e-39 320 255
0.0012115532 0.69099998 -0.0181733 8.6361492e-39 321 255
0.00243012 0.69300002 -0.018225901 8.2695275e-39 322 255
0.0036451798 0.69300002 -0.018225901 8.1769731e-39 323 255
0.0048672534 0.69400001 -0.0182522 7.6263203e-39 324 255
0.0060840664 0.69400001 -0.0182522 7.0731465e-39 325 255
0.0073008798 0.69400001 -0.0182522 4.9699348e-39 326 255
0.0085422397 0.69599998 -0.018304799 9.7637488e-39 327 255
0.0097625591 0.69599998 -0.018304799 4.063816e-39 328 255
0.01099866 0.69700003 -0.018331099 2.8379657e-40 329 255
0.012220734 0.69700003 -0.018331099 2.4993391e-39 330 255
0.013462093 0.69800001 -0.0183574 5.1730124e-39 331 255
0.014727999 0.69999999 -0.018409999 6.916805e-39 332 255
0.015955333 0.69999999 -0.018409999 7.6543701e-39 333 255
0.017182667 0.69999999 -0.018409999 6.8260695e-39 334 255
0.018436298 0.70099998 -0.018436298 7.6558316e-39 335 255
0.019749546 0.704 -0.018515198 7.9349548e-39 336 255
0.021043506 0.70599997 -0.018567799 6.2754321e-39 337 255
-0.05294716 0.71899998 -0.020170346 1.7793759e-38 278 256
-0.05168651 0.71899998 -0.020170346 1.8069988e-38 279 256
-0.0502856 0.71700001 -0.020114239 1.567326e-38 280 256
-0.04902846 0.71700001 -0.020114239 1.3552402e-38 281 256
-0.047571439 0.71399999 -0.020030079 1.179169e-38 282 256
-0.046254687 0.713 -0.020002026 1.1422547e-38 283 256
-0.044815198 0.70999998 -0.019917866 1.2152193e-38 284 256
-0.043570329 0.70999998 -0.019917866 1.1414628e-38 285 256
-0.042087011 0.70599997 -0.019805651 1.1412105e-38 286 256
-0.040849157 0.70599997 -0.019805651 1.067454e-38 287 256
-0.039442986 0.70300001 -0.019721493 1.0857483e-38 288 256
-0.038047329 0.69999999 -0.019637333 1.0673091e-38 289 256
-0.0367148 0.69800001 -0.019581227 1.0668053e-38 290 256
-0.035440128 0.69700003 -0.019553173 1.0022684e-38 291 256
-0.034218054 0.69700003 -0.019553173 9.6528445e-39 292 256
-0.032948639 0.69599998 -0.019525118 1.0298214e-38 293 256
-0.031728316 0.69599998 -0.019525118 9.9355676e-39 294 256
-0.0303765 0.69300002 -0.01944096 1.030399e-38 295 256
-0.029161438 0.69300002 -0.01944096 9.9370124e-39 296 256
-0.027946379 0.69300002 -0.01944096 1.0305795e-38 297 256
-0.02673132 0.69300002 -0.01944096 9.8480566e-39 298 256
-0.02551626 0.69300002 -0.01944096 9.1104915e-39 299 256
-0.024231065 0.69099998 -0.019384852 9.5631908e-39 300 256
-0.023019511 0.69099998 -0.019384852 9.6553878e-39 301 256
-0.021776399 0.69 -0.019356798 9.7497246e-39 302 256
-0.020566599 0.69 -0.019356798 9.9341159e-39 303 256
-0.019384852 0.69099998 -0.019384852 9.1929607e-39 304 256
-0.0181733 0.69099998 -0.019384852 8.6401471e-39 305 256
-0.0169372 0.69 -0.019356798 1.0491611e-38 306 256
-0.015727401 0.69 -0.019356798 9.0161225e-39 307 256
-0.014517599 0.69 -0.019356798 8.7272756e-39 308 256
-0.0133078 0.69 -0.019356798 9.0960567e-39 309 256
-0.012097999 0.69 -0.019356798 9.0938903e-39 310 256
-0.010888199 0.69 -0.019356798 9.186086e-39 311 256
-0.0096783992 0.69 -0.019356798 8.9109466e-39 312 256
-0.0084686 0.69 -0.019356798 8.8183923e-39 313 256
-0.0072587994 0.69 -0.019356798 8.9109438e-39 314 256
-0.0060489997 0.69 -0.019356798 9.0031394e-39 315 256
-0.0048391996 0.69 -0.019356798 8.8208992e-39 316 256
-0.0036293997 0.69 -0.019356798 8.8208992e-39 317 256
-0.0024231065 0.69099998 -0.019384852 8.8208964e-39 318 256
-0.0012115532 0.69099998 -0.019384852 8.8208964e-39 319 256
0 0.69099998 -0.019384852 8.7287007e-39 320 256
0.00121506 0.69300002 -0.01944096 8.7287007e-39 321 256
0.00243012 0.69300002 -0.01944096 8.4535586e-39 322 256
0.0036504399 0.69400001 -0.019469013 8.2695275e-39 323 256
0.0048672534 0.69400001 -0.019469013 7.6263203e-39 324 256
0.0060840664 0.69400001 -0.019469013 7.2575363e-39 325 256
0.0073219193 0.69599998 -0.019525118 4.9699348e-39 326 256
0.0085422397 0.69599998 -0.019525118 9.4875207e-39 327 256
0.0097765867 0.69700003 -0.019553173 4.0630943e-39 328 256
0.01101444 0.69800001 -0.019581227 8.3624728e-40 329 256
0.012238266 0.69800001 -0.019581227 4.3378609e-39 330 256
0.013462093 0.69800001 -0.019581227 7.1037298e-39 331 256
0.014727999 0.69999999 -0.019637333 7.9305968e-39 332 256
0.015978126 0.70099998 -0.019665385 8.1153482e-39 333 256
0.017207211 0.70099998 -0.019665385 7.5614682e-39 334 256
0.018488899 0.70300001 -0.019721493 7.1926842e-39 335 256
0.019749546 0.704 -0.019749546 5.2620033e-39 336 256
0.021043506 0.70599997 -0.019805651 4.3404071e-39 337 256
-0.05294716 0.71899998 -0.021430992 1.788452e-38 278 257
-0.051542737 0.71700001 -0.021371379 1.8161467e-38 279 257
-0.050215468 0.71600002 -0.021341572 1.594985e-38 280 257
-0.048960082 0.71600002 -0.021341572 1.3552404e-38 281 257
-0.047571439 0.71399999 -0.021281958 1.123708e-38 282 257
-0.046254687 0.713 -0.021252153 1.0868657e-38 283 257
-0.044815198 0.70999998 -0.021162732 1.1874899e-38 284 257
-0.043447599 0.708 -0.021103119 1.1321726e-38 285 257
-0.042087011 0.70599997 -0.021043506 1.1411048e-38 286 257
-0.040849157 0.70599997 -0.021043506 1.1226657e-38 287 257
-0.039499093 0.704 -0.020983893 1.0952584e-38 288 257
-0.038210396 0.70300001 -0.020954086 1.1136975e-38 289 257
-0.036819998 0.69999999 -0.020864666 1.1224116e-38 290 257
-0.035490975 0.69800001 -0.020805053 1.0394357e-38 291 257
-0.034218054 0.69700003 -0.020775247 9.9337249e-39 292 257
-0.03299598 0.69700003 -0.020775247 1.0395063e-38 293 257
-0.031728316 0.69599998 -0.020745439 9.9387864e-39 294 257
-0.030420333 0.69400001 -0.020685827 1.0123536e-38 295 257
-0.029203519 0.69400001 -0.020685827 9.9388046e-39 296 257
-0.027946379 0.69300002 -0.020656019 1.0123196e-38 297 257
-0.02673132 0.69300002 -0.020656019 9.8480411e-39 298 257
-0.02551626 0.69300002 -0.020656019 9.0182805e-39 299 257
-0.024301201 0.69300002 -0.020656019 9.4666736e-39 300 257
-0.023019511 0.69099998 -0.020596405 9.6514236e-39 301 257
-0.021807959 0.69099998 -0.020596405 9.283011e-39 302 257
-0.020596405 0.69099998 -0.020596405 9.283011e-39 303 257
-0.019384852 0.69099998 -0.020596405 9.2830082e-39 304 257
-0.0181733 0.69099998 -0.020596405 9.7439863e-39 305 257
-0.016961746 0.69099998 -0.020596405 1.0676357e-38 306 257
-0.015750192 0.69099998 -0.020596405 9.1086712e-39 307 257
-0.014538639 0.69099998 -0.020596405 8.7283504e-39 308 257
-0.013327086 0.69099998 -0.020596405 8.9127417e-39 309 257
-0.012115533 0.69099998 -0.020596405 8.9112941e-39 310 257
-0.010888199 0.69 -0.020566599 8.9112941e-39 311 257
-0.0096783992 0.69 -0.020566599 8.9109466e-39 312 257
-0.0084686 0.69 -0.020566599 8.9109466e-39 313 257
-0.0072587994 0.69 -0.020566599 8.7272756e-39 314 257
-0.0060489997 0.69 -0.020566599 9.0038611e-39 315 257
-0.0048391996 0.69 -0.020566599 8.4535586e-39 316 257
-0.0036293997 0.69 -0.020566599 8.5457542e-39 317 257
-0.0024231065 0.69099998 -0.020596405 8.6379471e-39 318 257
-0.0012115532 0.69099998 -0.020596405 8.5457514e-39 319 257
0 0.69300002 -0.020656019 8.4546376e-39 320 257
0.00121506 0.69300002 -0.020656019 8.362442e-39 321 257
0.0024336267 0.69400001 -0.020685827 8.0865781e-39 322 257
0.0036504399 0.69400001 -0.020685827 7.9943825e-39 323 257
0.0048672534 0.69400001 -0.020685827 7.4437241e-39 324 257
0.0061015999 0.69599998 -0.020745439 6.7987134e-39 325 257
0.0073219193 0.69599998 -0.020745439 5.0628535e-39 326 257
0.0085545136 0.69700003 -0.020775247 8.8425156e-39 327 257
0.0097906133 0.69800001 -0.020805053 3.8776311e-39 328 257
0.01101444 0.69800001 -0.020805053 1.2961534e-39 329 257
0.012273333 0.69999999 -0.020864666 5.2594697e-39 330 257
0.013500666 0.69999999 -0.020864666 8.3941211e-39 331 257
0.014749039 0.70099998 -0.020894472 8.3901526e-39 332 257
0.015978126 0.70099998 -0.020894472 7.8369789e-39 333 257
0.017207211 0.70099998 -0.020894472 6.640944e-39 334 257
0.018488899 0.70300001 -0.020954086 5.5342363e-39 335 257
0.019749546 0.704 -0.020983893 2.8688475e-39 336 257
0.021043506 0.70599997 -0.021043506 2.9610431e-39 337 257
-0.051542737 0.71700001 -0.02262852 1.8162183e-38 279 258
-0.050215468 0.71600002 -0.022596961 1.6133159e-38 280 258
-0.048960082 0.71600002 -0.022596961 1.3643878e-38 281 258
-0.047571439 0.71399999 -0.022533838 1.1606219e-38 282 258
-0.046319555 0.71399999 -0.022533838 9.7626656e-39 283 258
-0.044815198 0.70999998 -0.022407599 1.0584159e-38 284 258
-0.043447599 0.708 -0.022344479 1.076855e-38 285 258
-0.042206239 0.708 -0.022344479 1.150432e-38 286 258
-0.040849157 0.70599997 -0.022281358 1.1412123e-38 287 258
-0.039499093 0.704 -0.022218239 1.0861467e-38 288 258
-0.038210396 0.70300001 -0.02218668 1.0861467e-38 289 258
-0.036819998 0.69999999 -0.022091998 1.086002e-38 290 258
-0.035490975 0.69800001 -0.02202888 1.03994e-38 291 258
-0.034267146 0.69800001 -0.02202888 1.0031335e-38 292 258
-0.03299598 0.69700003 -0.02199732 9.9391382e-39 293 258
-0.03177391 0.69700003 -0.02199732 9.6650918e-39 294 258
-0.030507999 0.69599998 -0.021965759 9.7572874e-39 295 258
-0.029203519 0.69400001 -0.021902639 9.7551421e-39 296 258
-0.027986705 0.69400001 -0.021902639 9.6629464e-39 297 258
-0.026769891 0.69400001 -0.021902639 9.7533428e-39 298 258
-0.02551626 0.69300002 -0.021871079 9.015419e-39 299 258
-0.024301201 0.69300002 -0.021871079 9.2858822e-39 300 258
-0.02308614 0.69300002 -0.021871079 9.2858822e-39 301 258
-0.021871079 0.69300002 -0.021871079 9.3759129e-39 302 258
-0.020656019 0.69300002 -0.021871079 9.3759129e-39 303 258
-0.01944096 0.69300002 -0.021871079 8.915655e-39 304 258
-0.018225901 0.69300002 -0.021871079 9.5610244e-39 305 258
-0.01701084 0.69300002 -0.021871079 1.0584878e-38 306 258
-0.015795778 0.69300002 -0.021871079 8.8331605e-39 307 258
-0.014538639 0.69099998 -0.021807959 8.4524838e-39 308 258
-0.013327086 0.69099998 -0.021807959 8.6372338e-39 309 258
-0.012115533 0.69099998 -0.021807959 8.7283476e-39 310 258
-0.010888199 0.69 -0.021776399 8.636152e-39 311 258
-0.0096783992 0.69 -0.021776399 8.8194769e-39 312 258
-0.0084686 0.69 -0.021776399 8.8194769e-39 313 258
-0.0072587994 0.69 -0.021776399 8.5454039e-39 314 258
-0.0060489997 0.69 -0.021776399 8.5454039e-39 315 258
-0.0048462129 0.69099998 -0.021807959 8.2698904e-39 316 258
-0.0036346598 0.69099998 -0.021807959 8.2698904e-39 317 258
-0.00243012 0.69300002 -0.021871079 8.3620888e-39 318 258
-0.00121506 0.69300002 -0.021871079 8.4542845e-39 319 258
0 0.69300002 -0.021871079 8.1798598e-39 320 258
0.00121506 0.69300002 -0.021871079 7.9036316e-39 321 258
0.0024336267 0.69400001 -0.021902639 7.4440982e-39 322 258
0.0036504399 0.69400001 -0.021902639 7.3515439e-39 323 258
0.0048672534 0.69400001 -0.021902639 6.5246629e-39 324 258
0.0061015999 0.69599998 -0.021965759 5.6949022e-39 325 258
0.00733244 0.69700003 -0.02199732 3.7742825e-39 326 258
0.0085545136 0.69700003 -0.02199732 7.0011282e-39 327 258
0.0097906133 0.69800001 -0.02202888 2.7727212e-39 328 258
0.011045999 0.69999999 -0.022091998 3.75995e-40 329 258
0.012273333 0.69999999 -0.022091998 4.246038e-39 330 258
0.013500666 0.69999999 -0.022091998 6.6431244e-39 331 258
0.014749039 0.70099998 -0.022123558 6.2693e-39 332 258
0.016023712 0.70300001 -0.02218668 4.5175831e-39 333 258
0.017256306 0.70300001 -0.02218668 1.5806212e-39 334 258
0.018515198 0.704 -0.022218239 2.2259906e-39 335 258
0.019749546 0.704 -0.022218239 2.9610431e-39 336 258
0.021073313 0.70700002 -0.022312919 3.5142169e-39 337 258
-0.05294716 0.71899998 -0.023952285 1.7977074e-38 278 259
-0.05168651 0.71899998 -0.023952285 1.8253663e-38 279 259
-0.0502856 0.71700001 -0.02388566 1.6133162e-38 280 259
-0.04902846 0.71700001 -0.02388566 1.3551686e-38 281 259
-0.047704693 0.71600002 -0.023852346 1.1883155e-38 282 259
-0.046319555 0.71399999 -0.02378572 1.0223635e-38 283 259
-0.045004558 0.713 -0.023752406 1.0489075e-38 284 259
-0.043447599 0.708 -0.023585839 1.0950053e-38 285 259
-0.042206239 0.708 -0.023585839 1.1409972e-38 286 259
-0.040849157 0.70599997 -0.023519212 1.1502167e-38 287 259
-0.039611302 0.70599997 -0.023519212 1.0951868e-38 288 259
-0.038210396 0.70300001 -0.023419274 1.1044063e-38 289 259
-0.036872596 0.70099998 -0.023352645 1.0676707e-38 290 259
-0.035592664 0.69999999 -0.023319334 1.058451e-38 291 259
-0.034267146 0.69800001 -0.023252707 1.039976e-38 292 259
-0.033043321 0.69800001 -0.023252707 1.0307565e-38 293 259
-0.03177391 0.69700003 -0.023219392 1.0033151e-38 294 259
-0.030551834 0.69700003 -0.023219392 9.9409556e-39 295 259
-0.029287677 0.69599998 -0.023186078 9.9395305e-39 296 259
-0.028067358 0.69599998 -0.023186078 9.6629436e-39 297 259
-0.026769891 0.69400001 -0.023119451 9.8451671e-39 298 259
-0.025553079 0.69400001 -0.023119451 9.3841875e-39 299 259
-0.024301201 0.69300002 -0.02308614 1.0114546e-38 300 259
-0.02308614 0.69300002 -0.02308614 9.930153e-39 301 259
-0.021871079 0.69300002 -0.02308614 9.0117939e-39 302 259
-0.020656019 0.69300002 -0.02308614 9.1961851e-39 303 259
-0.01944096 0.69300002 -0.02308614 9.1032706e-39 304 259
-0.018225901 0.69300002 -0.02308614 1.0117062e-38 305 259
-0.01701084 0.69300002 -0.02308614 9.8498166e-39 306 259
-0.015795778 0.69300002 -0.02308614 8.4665234e-39 307 259
-0.014580719 0.69300002 -0.02308614 7.7181417e-39 308 259
-0.01336566 0.69300002 -0.02308614 7.9025344e-39 309 259
-0.012115533 0.69099998 -0.023019511 8.1780297e-39 310 259
-0.010888199 0.69 -0.022986198 8.0858341e-39 311 259
-0.0096783992 0.69 -0.022986198 8.1776766e-39 312 259
-0.0084686 0.69 -0.022986198 8.5464577e-39 313 259
-0.0072693196 0.69099998 -0.023019511 7.9954517e-39 314 259
-0.0060577663 0.69099998 -0.023019511 7.4422779e-39 315 259
-0.0048462129 0.69099998 -0.023019511 6.5253831e-39 316 259
-0.0036451798 0.69300002 -0.02308614 6.6175787e-39 317 259
-0.00243012 0.69300002 -0.02308614 6.1594901e-39 318 259
-0.00121506 0.69300002 -0.02308614 6.2516857e-39 319 259
0 0.69400001 -0.023119451 5.8854269e-39 320 259
0.0012168133 0.69400001 -0.023119451 5.8854269e-39 321 259
0.0024336267 0.69400001 -0.023119451 5.6102848e-39 322 259
0.0036504399 0.69400001 -0.023119451 5.6102848e-39 323 259
0.0048812795 0.69599998 -0.023186078 4.8752351e-39 324 259
0.0061103669 0.69700003 -0.023219392 4.0454744e-39 325 259
0.00733244 0.69700003 -0.023219392 2.7648179e-39 326 259
0.0085667865 0.69800001 -0.023252707 4.7009261e-39 327 259
0.0097906133 0.69800001 -0.023252707 2.954223e-39 328 259
0.011045999 0.69999999 -0.023319334 1.2947017e-39 329 259
0.012273333 0.69999999 -0.023319334 3.4155347e-39 330 259
0.013519952 0.70099998 -0.023352645 4.9828604e-39 331 259
0.014749039 0.70099998 -0.023352645 3.6921384e-39 332 259
0.016023712 0.70300001 -0.023419274 2.4935952e-39 333 259
0.017256306 0.70300001 -0.023419274 1.5792017e-39 334 259
0.018515198 0.704 -0.023452586 2.2245711e-39 335 259
0.019805651 0.70599997 -0.023519212 2.5940781e-39 336 259
0.021073313 0.70700002 -0.023552528 3.2394475e-39 337 259
0.022439159 0.71100003 -0.023685781 4.7999335e-39 338 259
-0.05168651 0.71899998 -0.025212931 1.8162189e-38 279 260
-0.050425861 0.71899998 -0.025212931 1.6133162e-38 280 260
-0.04902846 0.71700001 -0.0251428 1.3367293e-38 281 260
-0.047704693 0.71600002 -0.025107734 1.1882802e-38 282 260
-0.046319555 0.71399999 -0.025037598 1.151438e-38 283 260
-0.045004558 0.713 -0.025002534 1.1965278e-38 284 260
-0.043570329 0.70999998 -0.024897331 1.1319909e-38 285 260
-0.042206239 0.708 -0.024827199 1.1222327e-38 286 260
-0.040907022 0.70700002 -0.024792133 1.1406359e-38 287 260
-0.039611302 0.70599997 -0.024757065 1.0948994e-38 288 260
-0.038210396 0.70300001 -0.024651866 1.1041189e-38 289 260
-0.036872596 0.70099998 -0.024581732 1.0859316e-38 290 260
-0.035592664 0.69999999 -0.024546666 1.0767121e-38 291 260
-0.034365334 0.69999999 -0.024546666 1.0490536e-38 292 260
-0.033043321 0.69800001 -0.024476532 1.0767123e-38 293 260
-0.031819493 0.69800001 -0.024476532 1.012607e-38 294 260
-0.030551834 0.69700003 -0.024441468 1.0033874e-38 295 260
-0.02932976 0.69700003 -0.024441468 1.0033874e-38 296 260
-0.028067358 0.69599998 -0.0244064 9.8498418e-39 297 260
-0.026847038 0.69599998 -0.0244064 9.9380886e-39 298 260
-0.025553079 0.69400001 -0.024336265 9.6611416e-39 299 260
-0.024336265 0.69400001 -0.024336265 9.8433692e-39 300 260
-0.02308614 0.69300002 -0.024301201 9.8433692e-39 301 260
-0.021871079 0.69300002 -0.024301201 9.4778167e-39 302 260
-0.020656019 0.69300002 -0.024301201 1.0030632e-38 303 260
-0.019469013 0.69400001 -0.024336265 1.0308666e-38 304 260
-0.018225901 0.69300002 -0.024301201 1.0216469e-38 305 260
-0.01701084 0.69300002 -0.024301201 9.7601615e-39 306 260
-0.015795778 0.69300002 -0.024301201 8.7456495e-39 307 260
-0.014580719 0.69300002 -0.024301201 6.6222605e-39 308 260
-0.01336566 0.69300002 -0.024301201 7.2676299e-39 309 260
-0.012150601 0.69300002 -0.024301201 7.453826e-39 310 260
-0.010935539 0.69300002 -0.024301201 7.7300528e-39 311 260
-0.0097204801 0.69300002 -0.024301201 8.1924757e-39 312 260
-0.0085054198 0.69300002 -0.024301201 8.4694227e-39 313 260
-0.0072903596 0.69300002 -0.024301201 7.8290882e-39 314 260
-0.0060753003 0.69300002 -0.024301201 8.0134808e-39 315 260
-0.00486024 0.69300002 -0.024301201 8.1063981e-39 316 260
-0.0036451798 0.69300002 -0.024301201 8.2911481e-39 317 260
-0.00243012 0.69300002 -0.024301201 7.650459e-39 318 260
-0.0012168133 0.69400001 -0.024336265 7.650459e-39 319 260
0 0.69400001 -0.024336265 8.1081988e-39 320 260
0.0012168133 0.69400001 -0.024336265 8.5691769e-39 321 260
0.0024336267 0.69400001 -0.024336265 8.6635376e-39 322 260
0.0036609597 0.69599998 -0.0244064 9.4932982e-39 323 260
0.0048812795 0.69599998 -0.0244064 9.2210301e-39 324 260
0.0061103669 0.69700003 -0.024441468 9.2210301e-39 325 260
0.00733244 0.69700003 -0.024441468 9.0384339e-39 326 260
0.0085667865 0.69800001 -0.024476532 9.2228252e-39 327 260
0.0097906133 0.69800001 -0.024476532 8.8515063e-39 328 260
0.011045999 0.69999999 -0.024546666 7.2838205e-39 329 260
0.012273333 0.69999999 -0.024546666 4.2442262e-39 330 260
0.013519952 0.70099998 -0.024581732 2.5843461e-39 331 260
0.014812159 0.704 -0.024686933 1.6706673e-39 332 260
0.016046507 0.704 -0.024686933 2.0398099e-39 333 260
0.017280852 0.704 -0.024686933 2.4986329e-39 334 260
0.018567799 0.70599997 -0.024757065 2.8677755e-39 335 260
0.01986176 0.708 -0.024827199 3.5120631e-39 336 260
0.021103119 0.708 -0.024827199 3.7890088e-39 337 260
0.022439159 0.71100003 -0.024932399 4.7977629e-39 338 260
-0.05168651 0.71899998 -0.02647358 1.8345858e-38 279 261
-0.050425861 0.71899998 -0.02647358 1.6225359e-38 280 261
-0.049165215 0.71899998 -0.02647358 1.3551686e-38 281 261
-0.047704693 0.71600002 -0.026363119 1.1884248e-38 282 261
-0.046319555 0.71399999 -0.026289478 1.1699857e-38 283 261
-0.045004558 0.713 -0.026252659 1.2335859e-38 284 261
-0.043570329 0.70999998 -0.026142199 1.0307555e-38 285 261
-0.042206239 0.708 -0.026068559 1.066735e-38 286 261
-0.040907022 0.70700002 -0.02603174 1.1405273e-38 287 261
-0.039611302 0.70599997 -0.025994917 1.1132662e-38 288 261
-0.038264744 0.704 -0.02592128 1.1224858e-38 289 261
-0.036977798 0.70300001 -0.025884461 1.0856801e-38 290 261
-0.035592664 0.69999999 -0.025773998 1.0764605e-38 291 261
-0.034365334 0.69999999 -0.025773998 1.0490539e-38 292 261
-0.033043321 0.69800001 -0.025700359 1.0766767e-38 293 261
-0.031819493 0.69800001 -0.025700359 1.0306861e-38 294 261
-0.030595668 0.69800001 -0.025700359 1.0399416e-38 295 261
-0.02932976 0.69700003 -0.025663542 1.0308299e-38 296 261
-0.028107686 0.69700003 -0.025663542 1.0308299e-38 297 261
-0.026847038 0.69599998 -0.025626717 1.0399413e-38 298 261
-0.025626717 0.69599998 -0.025626717 1.0030632e-38 299 261
-0.024336265 0.69400001 -0.025553079 1.0121748e-38 300 261
-0.023119451 0.69400001 -0.025553079 1.0214303e-38 301 261
-0.021871079 0.69300002 -0.02551626 1.0030635e-38 302 261
-0.020656019 0.69300002 -0.02551626 1.07682e-38 303 261
-0.019469013 0.69400001 -0.025553079 1.0217559e-38 304 261
-0.0182522 0.69400001 -0.025553079 9.8491356e-39 305 261
-0.01701084 0.69300002 -0.02551626 1.0501695e-38 306 261
-0.015795778 0.69300002 -0.02551626 1.0870119e-38 307 261
-0.014580719 0.69300002 -0.02551626 9.306742e-39 308 261
-0.01336566 0.69300002 -0.02551626 9.0297963e-39 309 261
-0.012150601 0.69300002 -0.02551626 9.2134715e-39 310 261
-0.010935539 0.69300002 -0.02551626 9.2134715e-39 311 261
-0.0097204801 0.69300002 -0.02551626 8.847203e-39 312 261
-0.0085054198 0.69300002 -0.02551626 8.6631718e-39 313 261
-0.0072903596 0.69300002 -0.02551626 8.7546416e-39 314 261
-0.0060753003 0.69300002 -0.02551626 9.0312285e-39 315 261
-0.00486024 0.69300002 -0.02551626 8.9397545e-39 316 261
-0.0036504399 0.69400001 -0.025553079 8.9397545e-39 317 261
-0.0024336267 0.69400001 -0.025553079 8.5734929e-39 318 261
-0.0012168133 0.69400001 -0.025553079 8.7578856e-39 319 261
0 0.69400001 -0.025553079 8.2987011e-39 320 261
0.0012203199 0.69599998 -0.025626717 8.4830938e-39 321 261
0.0024406398 0.69599998 -0.025626717 8.9437174e-39 322 261
