# .PCD v0.7 - Point Cloud Data file format
VERSION 0.7
FIELDS x y z
SIZE 4 4 4
TYPE F F F
COUNT 1 1 1
WIDTH 1547
HEIGHT 1
VIEWPOINT 0 0 0 1 0 0 0
POINTS 1547
DATA ascii
122.1713 213.04401 -916.63525
111.77985 195.33566 -909.88898
109.82079 193.66695 -907.77954
118.93089 205.9312 -915.62054
116.58863 208.08603 -918.93488
112.57137 207.86644 -921.69409
109.41323 204.07983 -921.76953
116.76284 205.70314 -917.18622
118.2071 207.64537 -917.3219
118.39693 210.35483 -918.74493
119.43363 214.00362 -918.61127
117.43108 215.82475 -919.62366
115.17602 215.38892 -920.87701
113.17964 212.08192 -922.31689
117.79128 218.51073 -918.84955
120.31522 219.53143 -917.27258
122.38305 217.90845 -916.31982
124.85536 219.09291 -914.68591
125.08662 221.9861 -914.02936
128.04437 224.03679 -911.53528
126.69672 217.11899 -913.79193
130.48828 217.94371 -911.13916
130.56805 226.11276 -908.63129
129.57529 229.74222 -906.12805
121.99665 224.13423 -915.24768
118.65452 225.54996 -916.32019
117.12777 228.70912 -913.97064
124.55024 225.8595 -912.90851
123.08958 229.09439 -910.88745
124.31176 231.2113 -907.67517
116.21217 221.08974 -919.32507
113.69229 220.73215 -920.67474
112.14642 218.38626 -921.94659
111.10962 220.86237 -922.0249
108.78304 224.75883 -921.39313
114.9886 223.46065 -919.276
116.18481 225.28548 -917.6734
113.50366 225.60461 -918.75995
126.33965 214.28824 -913.89056
128.71021 212.00226 -911.336
110.60061 212.58136 -923.65094
107.25336 211.51683 -925.36102
104.94705 207.72812 -926.1839
103.07715 212.12733 -927.2984
128.35493 214.88147 -912.53876
120.33457 222.21738 -916.72815
110.94925 225.64861 -919.88019
111.82587 227.49809 -917.56262
112.48138 229.34029 -915.19489
109.88718 229.13803 -916.5036
107.34449 228.826 -917.80109
105.26648 227.41766 -920.12628
101.90276 227.30148 -921.30762
106.19248 230.89093 -916.07513
103.54954 231.5681 -916.2262
101.70229 232.77246 -915.01013
97.476135 233.47508 -913.98541
101.75974 230.62173 -917.94275
99.093208 230.29936 -919.04712
96.926254 231.43298 -918.13849
94.800438 232.54854 -916.17053
106.64625 232.50645 -913.99371
105.17741 233.79518 -911.55981
109.1925 232.56102 -912.96497
111.01454 231.09688 -914.04755
111.52713 232.73369 -911.73755
113.97417 232.83812 -910.32501
116.61122 232.82452 -909.10217
119.01684 233.01369 -907.66577
115.91452 231.5507 -911.23029
111.73268 233.83257 -909.22076
111.54232 234.53125 -906.33521
109.26511 234.42421 -907.948
106.54967 234.57599 -907.50543
104.21724 234.92899 -905.59674
105.89362 235.34543 -903.03381
101.41164 234.73723 -907.42084
109.48546 235.36571 -901.93518
104.57516 235.6637 -899.5296
104.6565 235.09993 -896.71204
106.55097 234.44167 -894.33221
99.999809 235.3009 -904.57343
99.41275 235.45126 -901.36597
97.241905 234.79375 -899.5144
93.157173 234.43182 -900.70593
102.74928 233.87206 -911.9007
126.11942 232.12907 -905.2843
121.1859 231.71193 -908.62775
116.56122 233.99104 -906.76971
114.2332 234.66792 -905.33588
115.4963 235.02126 -903.26025
133.11893 217.3548 -908.91064
104.68521 191.09314 -899.45776
102.46667 191.03128 -897.71484
100.03982 190.00705 -898.4931
98.382179 188.9707 -900.59088
95.806465 188.11115 -901.50787
93.741585 188.08009 -899.72583
94.125114 189.14848 -896.92719
98.06768 189.91159 -897.14099
97.876884 191.07092 -894.2735
97.311295 192.24434 -891.9184
95.46521 187.52853 -904.21802
93.271278 186.48079 -905.73846
91.191513 185.73192 -904.11395
93.601868 186.33031 -908.44421
95.802299 187.54749 -910.14948
98.168663 188.75417 -910.87573
90.038818 185.93201 -901.849
87.007202 185.41112 -899.2641
87.561211 187.44797 -896.71576
91.562317 184.82942 -909.74957
88.915131 182.80478 -912.73785
89.357513 183.4287 -908.41718
87.684319 183.04103 -905.70746
85.118767 181.74475 -905.3736
82.426895 180.57542 -905.56488
80.207352 180.46228 -903.54089
79.645874 179.50101 -906.19928
76.919807 178.35571 -907.24487
74.552513 177.23599 -908.60608
70.73246 175.6543 -909.96686
74.848839 178.17296 -905.68494
81.551659 182.01556 -900.48779
84.211708 183.05603 -900.6535
80.725304 183.08493 -897.94556
79.047211 178.58258 -908.90308
80.981476 178.87863 -910.94232
83.507027 179.97238 -910.56763
84.240265 180.72014 -907.99542
85.832542 181.07559 -910.60333
82.456291 179.33302 -912.99249
83.510323 180.02089 -915.6958
85.913261 181.32785 -915.89496
88.30883 183.02341 -917.21045
90.552528 184.2189 -914.98523
88.027222 183.69496 -920.08319
89.998596 185.35558 -921.20837
89.700905 186.33134 -924.02295
85.779007 182.79211 -921.34503
92.22522 186.50871 -919.43542
94.15271 188.66978 -920.31512
92.443642 186.06126 -916.77325
94.532631 187.45827 -914.94489
96.355362 188.97173 -915.7218
98.608734 189.70279 -913.75964
100.76413 191.15231 -914.95013
101.32395 193.22084 -918.19232
101.97754 196.01544 -921.04474
100.78701 199.45604 -924.664
105.64668 197.8082 -920.17468
106.1981 201.19156 -922.29071
108.08071 196.66756 -917.27045
93.821564 189.5706 -922.8559
91.746193 188.40706 -924.69592
95.311142 191.8394 -923.50806
95.082603 193.41711 -925.72845
97.655258 196.59578 -925.24738
97.388138 200.41937 -928.13599
87.305405 185.26352 -925.31232
91.605766 189.97118 -927.09418
92.868935 192.1954 -927.72913
92.650398 194.65959 -929.97528
89.743065 189.64204 -929.01385
88.854729 191.04008 -931.10687
89.913666 193.18796 -931.63928
87.885849 187.73015 -928.76831
93.766258 198.03819 -930.8407
89.000374 195.21735 -933.55072
86.778976 195.27235 -935.18774
96.291275 189.93201 -918.38861
98.442841 191.91992 -919.04871
86.708099 190.75633 -932.69312
85.650742 192.41458 -934.48938
83.46344 191.96603 -935.8197
81.880646 189.83607 -935.70947
82.386086 187.93047 -933.9444
85.01313 188.80928 -932.56335
85.648552 187.36548 -930.55396
84.341202 185.72685 -929.69324
83.756287 184.26414 -927.87799
81.694817 183.05188 -928.03113
85.344002 184.36342 -926.00128
85.209206 183.40436 -923.89368
97.039635 192.96695 -922.24841
96.950912 194.52982 -924.18201
88.87487 197.41812 -934.79712
89.511955 200.75577 -935.71368
90.405273 199.26286 -934.44751
91.831642 201.74681 -934.1723
93.418152 203.74876 -933.18359
95.203575 203.42072 -931.25287
97.647171 206.45206 -929.75446
95.771576 210.49846 -931.19812
101.17931 206.71037 -927.81708
92.40799 199.3466 -932.77167
92.70475 206.20963 -934.08942
90.594872 206.67104 -935.92584
88.785347 205.34027 -937.12317
90.337845 209.49763 -935.96088
90.440361 212.26863 -935.39355
92.220093 213.61389 -933.55573
89.769882 214.71431 -935.16022
87.285706 215.35439 -936.45532
85.408546 213.70186 -937.88721
83.088196 213.84831 -939.00623
81.558983 211.15733 -940.40594
93.934669 208.74597 -932.9823
86.781357 206.21002 -938.39435
86.07058 209.00757 -938.5094
88.483513 217.28146 -934.94989
89.565422 218.9118 -933.22272
91.693901 218.25098 -931.90479
93.943626 218.02785 -930.30304
96.446846 218.00638 -928.96423
94.704384 220.07823 -928.82379
98.9701 218.15865 -927.9505
100.21397 220.4893 -926.71002
101.91141 222.66472 -925.14703
104.70554 222.26779 -924.42279
101.44732 218.11552 -927.04968
102.6416 215.39073 -927.10791
97.506699 215.61507 -929.22717
96.254791 213.19301 -930.45093
98.918953 213.52155 -929.00403
93.990837 211.36536 -932.56354
92.805214 215.9594 -932.25128
103.68835 217.49858 -926.25464
105.64785 219.72549 -924.91626
94.264992 213.82312 -931.77667
88.494408 210.5168 -936.98199
90.352997 220.53699 -931.46442
90.944511 222.22612 -929.63654
88.998169 222.64265 -930.86407
91.486206 223.9334 -927.7572
92.76535 225.34328 -925.74915
95.536949 225.54439 -924.711
100.95934 225.20898 -923.55658
98.228653 226.28206 -923.35596
95.7528 227.51137 -922.80908
87.507027 224.57391 -930.25873
86.030029 226.38629 -929.35938
83.855164 227.97969 -928.86102
83.451836 229.73004 -926.43042
86.93396 222.96153 -932.27362
88.063889 226.12813 -927.84271
88.092049 227.60887 -925.77496
85.746185 229.13394 -925.3067
81.679871 228.90111 -928.87036
81.006516 230.33279 -927.10059
78.749268 231.66243 -925.88
79.829163 228.32405 -930.48309
77.153809 229.11203 -930.49731
95.714348 221.79195 -927.427
97.981804 222.09102 -926.52466
107.75485 217.32487 -924.37909
109.06916 214.87962 -924.09064
95.87812 201.23938 -929.98822
115.14516 203.85324 -917.30707
113.19966 201.93716 -917.60626
111.03108 202.18216 -919.40179
111.24977 200.20067 -917.93213
115.34133 202.02368 -915.94031
117.44991 201.65787 -914.01746
77.367859 180.15596 -901.91864
122.04185 215.33859 -916.81677
81.277679 181.87326 -925.91376
79.467262 180.64769 -925.51135
103.08379 199.04146 -922.82806
74.544937 176.4902 -911.44885
77.085152 177.04045 -913.49072
83.741653 180.642 -918.09894
95.341553 198.98647 -929.60712
78.583984 177.88773 -911.46106
86.476128 211.45921 -937.88843
87.283051 219.76207 -934.39526
85.248634 220.15932 -935.42902
83.55735 218.62985 -937.09467
111.68175 198.25259 -915.9751
113.53363 198.14166 -914.18506
109.77913 198.18451 -917.52911
109.67406 196.44736 -915.58484
108.42039 194.59935 -913.34564
107.85781 195.17302 -915.34967
105.78751 193.81262 -915.08099
103.25229 192.96321 -916.07031
106.34092 195.16339 -916.82135
106.19666 196.44476 -918.5061
107.67281 198.17401 -919.04944
104.30485 196.04369 -919.45673
102.81489 194.68925 -919.06458
100.60834 194.35861 -920.27203
126.21818 206.69055 -910.18842
127.29836 209.54419 -911.14435
125.1799 208.38678 -912.08759
129.52702 210.25458 -909.72906
82.569962 184.93806 -930.40948
81.409538 185.75389 -932.67371
101.922 234.37329 -895.84564
99.249924 233.63562 -895.30463
101.24426 233.22804 -893.30328
103.27886 232.82364 -891.4726
105.95737 233.42902 -892.10638
96.573967 232.81384 -894.58289
97.047455 233.91335 -897.16486
102.14867 235.28752 -898.51001
122.54375 211.30481 -879.76416
124.51035 210.24188 -880.59662
126.53803 211.97391 -880.49359
129.57002 214.58044 -882.26276
126.54955 214.60159 -879.8576
123.94216 215.326 -879.00665
115.16402 230.12695 -913.25067
114.95934 228.66449 -914.99561
116.85597 227.01021 -915.92511
117.64286 230.25937 -912.01001
119.3061 229.04616 -912.68579
118.96107 227.38666 -914.59735
53.953506 184.14105 -958.69037
59.840992 185.36563 -957.06433
52.448715 179.54201 -959.07532
48.440144 176.25139 -960.95203
36.747578 227.60776 -906.05023
60.573551 223.07883 -942.21149
23.182566 228.07088 -917.48346
20.701466 227.09076 -916.88641
23.929045 228.85556 -919.81891
22.379618 228.96431 -922.42603
19.578465 228.71617 -926.14954
15.586331 227.73921 -926.70508
12.408959 227.27835 -931.75439
19.366707 227.15402 -918.92029
17.177986 226.3647 -919.98022
19.602951 227.91139 -921.41077
15.343519 223.63983 -917.47681
14.858441 225.47972 -921.87567
12.136953 225.70938 -925.23926
13.60652 223.10924 -920.15314
13.364353 221.2789 -917.6048
12.387947 219.19778 -915.61353
61.732578 230.54884 -901.93237
9.5463963 147.12862 -953.54773
16.015953 146.52287 -953.61469
120.39442 199.69812 -907.59662
122.47697 200.9617 -907.51892
87.888153 207.83548 -882.81409
86.465515 209.87329 -882.92578
71.750763 201.39323 -884.75482
90.287483 183.80693 -911.52435
62.0107 171.74214 -915.42328
65.408005 172.97691 -916.96631
68.71376 174.13412 -915.35162
64.740738 173.2711 -913.06677
59.629154 169.74522 -917.97174
56.38353 168.49242 -916.81567
60.091648 169.16502 -920.97961
62.924526 170.66818 -922.88757
63.151054 170.21748 -927.49438
65.924019 173.13712 -928.63867
65.661842 172.86131 -921.30725
67.754845 174.00626 -922.50159
70.256569 174.82509 -921.03796
70.26368 174.54088 -918.17358
72.550766 175.99884 -922.49249
67.492599 174.24622 -925.48907
70.277 176.42213 -927.64734
70.658005 178.16602 -931.26886
68.636375 177.38701 -933.56049
66.803383 174.50917 -933.32159
66.053398 172.11435 -935.84314
66.019783 170.87547 -939.45581
63.383938 168.67276 -936.01923
61.335773 168.51488 -932.46057
61.367252 168.81187 -929.56531
59.274193 167.81418 -927.71143
57.590626 167.09457 -924.84784
54.667515 166.09116 -924.37122
52.804134 166.09053 -921.77399
53.45821 166.9615 -919.01556
50.687973 166.85852 -917.51074
48.030083 166.38768 -918.16119
64.244698 171.01749 -929.52014
65.698242 172.62434 -931.15808
70.670845 179.39288 -933.5766
71.316956 181.10406 -935.74023
69.875153 181.38274 -938.05469
73.534508 182.84358 -935.97253
75.387474 182.66571 -934.32391
75.38134 181.1597 -932.07306
73.056038 179.65918 -931.5318
77.562973 184.1095 -934.28522
79.107368 183.5685 -932.10583
78.158348 185.96071 -935.68347
80.270981 187.48061 -935.30585
76.397774 186.5278 -937.45258
74.092926 184.99501 -937.74841
72.158249 185.51411 -939.4751
70.165382 183.96582 -940.41333
69.416946 185.47627 -942.81726
76.461792 188.72997 -938.94159
74.750702 189.53082 -940.57074
78.229523 189.9538 -938.46228
80.038254 189.74702 -937.03662
68.411369 179.27937 -938.85095
68.230896 180.05711 -941.44043
68.186264 180.04031 -943.95081
68.035866 177.19019 -936.73993
68.278526 182.22388 -945.10791
68.015587 180.55783 -947.26953
66.985634 182.35408 -951.46332
67.347343 178.12103 -949.29504
63.832687 184.07854 -955.12469
67.962646 177.46417 -943.69159
67.486816 175.09062 -942.48907
66.704521 172.32838 -941.867
67.329178 174.88548 -940.01294
68.398567 184.67786 -945.0387
67.88282 186.21004 -947.6546
67.532822 184.66783 -949.98041
66.314934 184.9064 -952.5144
64.262146 188.52385 -954.08868
67.51725 188.7798 -948.74207
66.495453 190.53452 -950.78717
68.197777 190.95975 -947.31427
64.531433 194.24406 -952.57373
61.146114 196.06383 -954.65729
69.67469 195.09602 -946.45569
67.608177 175.85088 -945.51361
66.644226 174.05801 -947.4527
65.78698 171.80176 -946.53784
65.122971 172.56467 -949.06891
64.348396 173.59418 -951.38892
65.055603 176.16733 -952.57782
62.396564 172.06401 -952.10565
60.669796 172.7123 -954.34674
58.412479 171.59633 -955.79828
57.396507 168.20412 -955.42242
57.68782 166.69681 -951.97119
55.574879 164.36606 -949.19666
61.20594 169.91249 -951.23444
61.554165 168.38379 -948.71307
60.486942 166.24536 -945.65295
57.92437 164.91769 -945.17401
60.935043 175.0379 -955.47705
58.687 177.56071 -957.34381
61.337788 181.53516 -956.63684
56.249756 176.80507 -958.13049
63.200191 176.96693 -954.7052
55.289783 173.45335 -958.68811
56.520447 166.15817 -957.42871
55.29863 167.38409 -961.78577
52.586117 167.96298 -966.1944
52.081142 164.12065 -971.10535
56.042618 162.21977 -957.49646
56.224747 158.08519 -959.39777
57.863609 159.69849 -963.95233
48.907276 171.04782 -964.33911
57.254513 164.49344 -942.68994
54.661987 164.05991 -941.40857
58.450066 165.12402 -940.25171
61.479282 166.30101 -940.45276
62.838341 167.18712 -943.05341
53.249687 164.05083 -939.29474
54.898582 164.98479 -936.79688
57.228638 165.82445 -936.73975
57.573776 166.82494 -934.32965
56.593426 166.85364 -931.98987
53.873772 165.55519 -932.06635
51.956371 164.16559 -933.35107
52.385414 163.53415 -943.25635
52.45034 163.33702 -946.17786
48.14196 162.06381 -948.20648
49.417458 163.1721 -943.24707
48.266785 163.11784 -940.83142
53.284554 154.30583 -958.50201
53.354267 151.01387 -961.7522
56.095673 151.53868 -966.46802
65.153587 169.37636 -941.95166
50.521866 163.47768 -938.51532
48.231972 162.99586 -937.7243
46.386421 161.96693 -935.60358
42.582375 159.97481 -934.82623
45.527744 160.21414 -933.52625
46.918243 159.60721 -930.57098
44.183846 157.95319 -932.22046
43.218792 157.47076 -926.84558
57.067543 167.05475 -929.18713
53.203999 165.25395 -928.94
38.784176 154.68312 -926.95392
61.9445 167.27022 -937.7558
67.309532 176.43414 -947.96796
52.875507 165.31963 -926.57391
50.935722 163.99533 -928.42108
48.917805 162.03676 -929.7002
48.944267 163.12277 -927.24701
52.351669 165.43263 -924.19049
50.241615 165.20143 -923.10248
48.543659 163.94466 -924.85333
46.615379 162.77802 -925.67316
45.203842 160.95834 -926.26373
44.333328 163.56972 -924.32654
44.129311 165.11647 -921.88135
42.106972 163.82043 -923.80225
39.6166 164.16574 -923.58698
38.709572 165.26927 -921.26984
40.24242 165.94003 -919.02008
37.758606 165.92116 -918.8855
35.125938 165.66888 -918.54657
32.999054 164.74521 -920.38635
36.995079 164.26276 -923.41779
34.24152 164.20586 -922.7984
35.290661 162.62025 -925.26404
36.58136 160.22649 -926.05847
33.54554 160.24727 -926.1369
31.923901 157.75577 -926.98328
39.980526 159.94908 -925.57056
33.969742 153.74651 -930.21893
34.972725 166.55092 -916.10547
32.268497 166.62494 -914.76587
29.915224 165.74814 -915.91724
28.730003 164.57626 -918.52191
28.111691 166.77415 -914.08557
28.714811 168.84598 -910.40253
32.168152 168.97614 -909.12476
30.956347 161.20505 -926.086
29.192499 162.31689 -924.10309
26.299047 162.2222 -924.14465
24.512831 160.68999 -928.16699
25.090971 163.33867 -921.84235
31.204744 163.62231 -922.73407
46.767879 165.56686 -920.55243
35.233425 169.29774 -908.29218
36.35833 170.96559 -904.94208
40.42247 162.3197 -925.22095
45.127296 170.51239 -966.37183
44.067619 168.30336 -970.08978
46.916733 164.28857 -973.00177
40.200996 170.8858 -971.81879
51.252136 159.86916 -975.67822
41.719746 172.84964 -967.56195
41.060162 178.26608 -964.98383
38.356869 169.21657 -975.94678
35.884392 167.67543 -980.08435
36.19833 173.03242 -973.26129
34.301842 176.7579 -970.87793
31.232937 180.62105 -969.38214
36.092224 179.92755 -967.34283
26.683006 182.37231 -969.82452
34.490582 184.8627 -966.03876
38.086407 188.12965 -964.88971
42.439377 186.52698 -963.48474
40.413277 192.0739 -963.97925
32.238796 188.41382 -965.85779
30.437916 193.27599 -964.70453
27.250961 188.66779 -966.50775
37.088562 195.85278 -962.63275
49.796928 162.86642 -933.46832
31.842888 167.5164 -982.73041
52.285225 148.55969 -965.56262
50.700111 147.19389 -969.10394
50.656647 148.34917 -972.96167
52.444782 151.7433 -974.07874
55.536247 153.29413 -971.66907
53.748943 156.13148 -975.07043
48.694 146.7381 -964.75848
50.010666 150.11557 -976.84827
48.932487 151.96095 -980.77173
46.198639 144.1218 -964.84338
45.936714 141.20515 -968.20728
47.029514 142.17395 -973.12756
44.233864 138.40952 -971.43146
43.062176 141.707 -964.20892
45.981392 147.3994 -962.43231
42.828217 148.45706 -959.96448
39.573132 148.99208 -957.27411
40.254158 152.66331 -955.11273
38.444839 154.68443 -951.7171
39.8358 145.63481 -959.70691
46.078537 150.91106 -960.22272
49.057602 156.38966 -980.30591
43.623905 154.98308 -955.68616
48.830456 145.04205 -972.09344
39.381634 139.4807 -963.95062
39.943417 142.81522 -961.62769
37.298786 137.9447 -964.52612
33.640949 138.70052 -962.57538
38.835861 136.71904 -966.6134
38.267227 134.85883 -968.72693
35.735104 133.64757 -968.52692
33.414928 134.68925 -966.34711
37.55545 132.86055 -970.93964
39.310364 131.94336 -974.46307
42.159977 132.81271 -979.19836
41.65247 128.01314 -982.43713
36.708466 130.67798 -972.97107
40.787357 136.5128 -968.6925
34.086082 128.5246 -973.34729
31.948978 129.59137 -971.27081
36.48349 127.57301 -975.99823
37.922279 124.99097 -979.87885
35.640144 124.46584 -978.40649
32.052513 123.04941 -977.80878
29.030207 124.87883 -975.04425
28.979744 120.66326 -979.3894
25.312769 118.12337 -981.57605
36.426819 122.8959 -980.52393
36.118206 119.23627 -983.66467
39.390118 118.67033 -986.94971
42.22121 121.07092 -988.81543
42.780819 125.39729 -986.7655
44.366596 129.73776 -988.87085
30.557381 126.74607 -973.58051
44.037598 136.99057 -981.16443
38.671272 123.39724 -982.14856
40.865471 125.22082 -983.39587
45.608192 140.94962 -978.3161
39.070862 115.36464 -989.56378
40.984787 114.0883 -992.83862
41.286381 110.63148 -996.08008
43.452942 109.35314 -1000.3023
35.631367 112.30648 -989.79596
33.562553 109.0423 -992.04297
32.309284 113.41962 -987.20581
32.787437 116.1599 -984.76208
31.695995 118.47893 -982.23657
29.467762 113.33017 -986.67072
25.934967 111.20357 -988.65753
26.762474 107.5832 -992.3678
22.620956 109.41693 -990.61469
22.640079 106.27079 -993.8996
16.977289 104.04395 -997.05304
11.386898 107.88679 -994.30334
25.390497 114.91361 -984.85168
20.890255 115.99119 -983.8631
18.351381 111.6189 -988.74133
14.523582 110.20854 -990.93732
9.6505899 112.45071 -990.02618
4.7516146 115.29836 -988.76129
0.51554716 114.81991 -992.25543
-3.1791368 119.32336 -992.27997
0.65132099 110.87811 -996.57764
-1.712726 109.49413 -1001.442
-4.5895801 112.56285 -1003.768
-6.6156077 120.09055 -1001.691
26.443409 104.42804 -995.61627
29.864054 101.56645 -998.53345
28.527393 97.676659 -1002.5478
23.290436 93.903313 -1006.9557
-4.5837426 109.62357 -1008.4682
-3.1631675 105.50784 -1011.0457
0.003015761 102.4314 -1008.8617
2.5118508 103.50709 -1004.1417
3.1076744 98.285034 -1009.9525
7.2965369 96.030205 -1009.129
10.675509 97.471405 -1005.829
10.914165 92.708595 -1011.1567
16.323921 90.540405 -1011.7275
16.215536 85.223282 -1016.3572
9.8224401 89.319527 -1015.3164
2.2834761 95.687569 -1014.4354
-0.76765168 97.083031 -1018.4181
3.7217848 92.028511 -1017.2283
4.0792575 88.713226 -1020.8209
4.6690054 83.425194 -1024.8586
3.8390226 77.63266 -1029.5808
1.5786012 89.122406 -1025.4191
-1.1415207 94.41198 -1027.0928
0.29897138 90.118614 -1030.3806
0.35382468 86.659866 -1035.9005
-1.0856559 79.438026 -1037.3704
-5.8078594 112.064 -1013.2324
-5.197228 112.78605 -1018.4436
-3.0796883 103.01803 -1015.8465
-4.0500598 105.27232 -1020.0509
42.127594 135.01743 -974.99054
38.078892 143.37543 -960.37854
34.070362 141.89212 -960.05542
33.718906 144.62979 -957.66693
30.433863 145.16547 -956.14099
26.720108 142.94263 -957.29065
27.00359 146.59981 -954.00635
22.323809 146.86339 -953.24493
20.786507 149.89542 -950.0896
34.263657 147.64635 -955.3891
37.288136 148.68704 -956.02393
33.60445 149.54286 -953.47925
31.006659 149.94312 -952.06592
28.167372 151.65953 -949.41138
24.423803 152.20251 -947.8692
34.707764 152.08401 -951.68402
35.354233 155.312 -948.54785
58.685776 193.4115 -956.33795
58.816257 189.57649 -956.95978
53.128342 175.23709 -959.5481
27.007244 158.75078 -930.05042
21.147583 119.67139 -980.06555
26.390194 164.25389 -919.33948
42.506149 127.24341 -984.81421
42.962372 130.21085 -983.8421
43.557632 127.82898 -987.12549
44.267574 127.45358 -989.63074
45.242115 126.86174 -994.01886
44.933292 129.02028 -991.6095
44.980431 133.34177 -990.96173
45.182957 136.12241 -994.60266
45.689522 126.20912 -996.64911
46.023617 129.09296 -999.61151
42.947083 132.46451 -981.91693
41.86647 130.24203 -980.98639
40.261597 128.30693 -979.74261
43.772331 130.45335 -986.26178
44.433193 132.29588 -988.20392
44.434036 136.12303 -986.59644
44.809814 140.15474 -986.85815
45.331909 144.51303 -986.16425
45.258266 124.30032 -995.14636
43.974957 121.31927 -992.52686
45.747177 123.42632 -997.70953
45.843525 120.936 -998.96313
44.508385 117.51508 -996.37347
45.657925 115.58926 -1000.5884
46.363518 122.16373 -1001.3206
46.86314 121.09119 -1004.889
46.828949 117.18671 -1004.6014
46.489452 124.71331 -1003.0392
46.322315 126.92798 -1005.2446
44.705486 130.48846 -1009.3906
46.10511 127.01806 -1008.3174
46.97216 122.22986 -1011.4312
47.158016 114.40655 -1007.0582
47.781029 114.73656 -1010.7271
48.116291 113.313 -1014.0099
48.108917 108.88146 -1013.8743
47.696468 117.84644 -1012.575
46.865479 121.04449 -1015.9036
47.150833 117.69719 -1019.8549
46.904545 110.70598 -1007.6573
45.358334 108.83335 -1004.5481
42.896198 105.158 -1003.053
46.941586 108.39326 -1009.2414
46.584888 104.59608 -1010.4336
44.420845 102.39883 -1007.6714
42.581623 98.799561 -1007.9854
38.739937 96.960258 -1006.0268
36.746418 91.628815 -1009.8544
47.085014 121.09936 -1007.8275
46.276058 127.06976 -1002.2253
34.28907 103.04439 -997.91602
35.872185 106.57752 -995.32562
37.690517 101.88342 -1000.6829
31.099609 164.4371 -986.56805
34.578255 160.98204 -988.99884
56.527905 163.96376 -960.25177
43.045383 181.75485 -962.78345
22.322968 103.08443 -997.25208
15.50052 97.82003 -1003.9771
18.238302 99.965843 -1001.1285
21.200689 97.152557 -1003.6262
9.1008291 100.7737 -1002.884
10.076927 103.69096 -999.3526
30.169409 140.01231 -960.62415
26.96912 138.05432 -961.90704
24.74568 137.1736 -962.57581
20.975229 135.74051 -963.96332
21.216581 138.76608 -961.08191
19.34218 140.94536 -959.04614
15.916607 143.21648 -956.91431
13.792187 140.38074 -959.91772
9.0853643 140.70767 -960.4729
18.210127 136.01544 -963.96973
14.443255 137.60027 -962.71344
14.975729 134.15634 -966.23083
5.5566726 143.80804 -958.77472
0.08576411 145.2448 -961.23907
22.916855 141.53102 -958.34845
24.121302 144.21107 -955.80499
10.721167 138.61351 -962.16943
7.4171829 136.96294 -964.90051
2.2655656 138.08604 -966.81628
0.8321858 134.38026 -971.69879
12.017131 133.50723 -967.28192
9.1566792 132.43608 -968.98419
6.0628552 131.14066 -971.44208
2.2638841 130.83925 -973.88806
10.011003 128.80965 -972.64368
10.08662 125.68694 -975.94385
6.8852544 122.51019 -980.04163
2.5035515 127.6662 -976.83228
-0.44655663 127.23947 -979.76495
-1.126767 124.44588 -983.42291
2.3166683 120.88008 -984.05573
-3.3530879 130.16486 -980.40778
-3.5600157 133.38307 -977.55804
-6.0671086 136.09814 -979.71063
-7.4442925 136.40549 -983.94232
-8.1466703 139.42038 -987.43359
-7.0119929 141.37833 -994.00232
-7.1107159 132.16812 -987.14557
-7.4244795 129.27975 -992.39508
-4.3728857 148.89157 -993.48401
-6.1842933 137.89114 -999.58319
-6.7731833 139.94507 -977.77606
-5.4098215 141.36916 -973.24768
-1.9285954 138.79465 -970.38892
-2.1635849 122.12778 -987.34863
-4.9658918 124.14563 -990.13275
-6.6407948 145.98601 -972.06036
-8.4808493 150.40796 -974.22107
-11.313075 155.36543 -972.72961
-11.175745 161.62582 -976.30774
-6.113832 147.5034 -967.39429
-9.0522785 150.38977 -963.5694
-3.0147405 145.41066 -964.80347
0.43561634 141.94785 -964.59882
-7.7821879 150.33669 -979.78741
-6.1941867 154.2354 -983.03796
-4.9145622 152.7831 -987.69598
-6.3186312 159.68335 -980.12378
-2.6110673 162.18066 -982.64264
-0.80477327 167.11932 -980.83783
6.0573492 169.89021 -982.17603
14.40852 132.15154 -968.31659
14.648029 129.72427 -970.77814
12.374884 129.0218 -971.93793
11.609286 127.20791 -974.01031
12.946246 124.55063 -976.51086
15.48236 123.14024 -977.40112
14.693093 120.18121 -980.47437
13.503305 117.10767 -983.89868
10.685792 120.09401 -981.51514
10.043746 115.5687 -986.51874
0.36659738 160.78282 -987.03668
3.3748043 159.73907 -990.79919
8.6678886 157.65714 -995.47406
8.4419127 161.6162 -991.36627
1.414073 164.55008 -984.15588
9.6829824 165.12386 -988.12842
-0.86171895 156.94095 -989.87695
-2.2265837 153.18109 -992.30426
-0.74104953 149.93814 -997.76288
-5.0060563 129.67696 -983.88812
-6.3079505 129.17957 -987.66687
16.394583 128.13789 -972.12494
18.877947 126.16725 -973.73785
20.407513 127.8898 -971.80273
23.795601 128.54745 -970.99103
25.823723 125.96903 -973.62097
23.919975 124.07683 -975.51154
22.058531 122.70258 -976.95123
20.50034 124.23929 -975.51215
17.741394 124.52947 -975.59998
5.3192215 125.82388 -977.20874
-7.9358916 146.33878 -982.05176
9.6361532 134.46616 -966.75732
22.571262 133.23903 -966.26678
25.156111 132.31892 -967.23486
26.38015 130.25499 -969.40674
19.963718 131.36525 -968.32648
27.450722 134.17241 -965.599
44.987011 162.55562 -940.97943
41.446079 160.82744 -944.47968
42.388374 161.89848 -939.52991
24.908762 165.38361 -917.30963
24.991043 166.72119 -914.87872
22.551304 165.65565 -917.37531
20.039167 166.12888 -916.8775
19.103655 167.48663 -914.93848
17.246447 166.31595 -916.64301
20.919796 164.66704 -919.35596
22.043249 163.5144 -921.70496
19.247372 163.72809 -921.20367
20.372789 162.62897 -923.74628
21.408442 161.83656 -925.99481
18.480417 161.79044 -925.61768
16.766375 164.00752 -920.44879
15.295031 162.98878 -922.19434
12.586481 162.85573 -922.12048
15.736717 161.87633 -924.68109
16.941141 160.97449 -927.47546
18.013157 159.93698 -931.45508
15.338299 160.1944 -929.55432
12.746936 160.089 -928.69952
11.109992 159.30406 -930.54382
11.80763 158.65443 -933.26672
14.172546 158.66879 -934.32587
9.2666121 157.96974 -934.47009
9.4317894 157.09837 -937.21924
11.844103 156.88837 -938.45123
6.8891964 156.38663 -938.47217
12.0776 155.75778 -941.20856
13.298091 153.86327 -945.05859
14.166613 157.76169 -936.90704
18.010754 157.44553 -938.70959
21.078144 158.91293 -935.55243
16.365911 153.1362 -946.24628
9.5266542 152.46365 -947.20184
10.183484 150.09637 -950.0802
13.777461 148.80956 -951.32684
16.928823 150.06676 -949.95721
18.253756 155.52977 -942.51459
22.882175 155.29565 -943.56409
18.356522 148.13591 -951.98352
25.314322 157.00641 -941.26666
14.106855 156.60371 -939.67554
9.4231138 155.08163 -942.44897
9.6200371 153.81378 -945.04498
45.252205 118.80613 -1024.3295
48.97525 152.0817 -959.63928
79.398811 191.82527 -938.67334
78.654465 193.52887 -940.07758
76.671913 193.64594 -941.44171
78.255531 195.52753 -941.31091
78.897736 197.74484 -941.81146
80.643463 193.69981 -938.74445
82.390785 195.6752 -938.4812
82.537102 193.70987 -937.38525
77.782539 199.1711 -942.95612
74.904961 197.66409 -944.15771
80.8041 197.24768 -940.30463
82.104538 198.92393 -940.08917
83.867485 199.94725 -939.27563
85.567787 198.81305 -937.72955
85.655052 201.4068 -938.53729
87.534019 200.60396 -937.05182
81.876236 201.245 -940.88666
85.19944 204.00273 -939.26099
82.812706 204.00093 -940.6582
79.799644 201.19574 -942.16693
78.610947 202.77084 -943.00836
76.6819 203.63445 -944.02795
78.709282 204.87968 -942.89026
80.62674 205.76021 -941.78833
82.526009 206.31586 -940.74231
83.426468 208.89677 -939.90863
79.211067 207.50261 -942.29126
75.171219 201.82147 -944.73822
73.062225 202.42906 -945.70001
71.562531 200.77365 -946.26935
72.214874 204.99403 -945.95782
73.503181 207.00069 -945.13666
69.787872 205.79346 -946.94342
73.00528 209.90704 -944.8031
71.392433 212.47932 -944.88904
68.562859 208.2831 -947.11578
68.26564 203.75089 -947.85767
65.756172 203.40903 -949.46167
64.221542 205.84378 -949.96936
65.417152 200.71681 -950.28192
67.134323 197.92555 -949.00153
70.214005 210.37408 -945.97137
65.886765 208.50996 -948.37775
64.625473 211.02272 -948.26929
61.104553 213.53772 -948.82147
57.172291 213.08661 -950.86493
69.473885 201.37187 -947.28308
79.850883 209.76106 -941.54633
77.388702 208.67686 -942.95996
75.374313 208.05527 -944.06201
75.606522 210.17868 -943.50214
76.508781 212.36052 -942.60535
74.996704 214.46762 -942.7373
75.63195 216.56129 -941.76636
72.965881 214.28947 -943.6665
78.971062 212.39732 -941.42377
74.819382 218.7847 -941.09283
75.469543 195.23415 -942.948
79.218979 214.43394 -940.81555
77.989174 216.08763 -940.89496
79.376366 217.35146 -939.75745
81.458389 217.23254 -938.76495
79.020035 219.48012 -938.8811
77.042885 220.11844 -939.38049
81.100586 213.43422 -940.13947
68.782867 212.70209 -945.8819
66.715508 214.17867 -946.08594
65.293724 217.75897 -944.78821
84.900703 196.4968 -937.13666
70.995575 215.02692 -944.19934
70.126213 217.29678 -943.5365
34.647533 136.77069 -964.651
40.887356 130.72116 -978.49994
41.272808 133.03598 -976.51215
42.697769 135.0341 -977.28101
43.186146 135.0442 -979.63831
43.956692 137.32124 -978.49261
44.914978 139.24074 -976.8399
45.136383 139.37006 -973.92719
46.176632 141.35886 -975.78711
46.929771 143.47273 -977.5105
47.989864 147.20467 -979.54785
46.688202 145.44347 -981.69214
44.698132 139.11414 -979.88184
44.604038 138.94836 -982.69269
45.260048 140.95418 -981.03394
44.070652 136.0278 -983.9389
46.145374 142.6674 -979.43433
47.027988 144.82422 -979.51483
47.46207 143.59169 -975.34796
36.739033 167.38315 -914.58838
39.155563 167.54192 -914.77008
41.834461 167.44487 -914.99994
39.909424 166.75301 -916.71014
42.191498 166.54578 -917.32361
44.096836 166.88982 -916.16187
46.571503 166.9418 -916.04205
42.694244 165.83371 -919.69733
47.089535 167.87056 -913.3631
45.220856 168.5524 -911.39917
37.99839 168.19894 -912.70673
39.436695 168.84538 -910.80115
41.996937 168.77544 -911.0636
36.974899 168.78741 -910.39343
42.860451 168.16251 -912.89276
40.594147 169.36691 -908.99268
39.6539 170.30058 -906.45013
41.901867 170.04565 -907.35309
44.263374 170.1207 -907.37726
41.451893 171.03427 -905.26727
42.634132 172.00458 -903.91046
44.969463 172.16852 -903.95166
46.696899 171.15346 -905.78601
45.687962 173.5361 -902.20728
48.056221 173.80602 -902.17554
44.343342 174.61627 -900.81348
45.13039 176.19151 -899.1795
47.311474 176.71748 -898.85284
43.892509 177.35999 -897.99829
44.24646 179.26566 -896.39386
48.85392 178.24869 -897.67816
48.409924 180.01218 -896.16168
51.135185 177.93333 -898.42072
53.110634 179.13458 -897.73523
53.534817 181.35593 -895.88654
51.969833 176.27519 -900.2475
54.139946 175.44148 -901.73846
50.448948 174.90982 -901.31879
52.58308 174.57713 -902.30304
52.698887 173.22479 -904.14252
54.201859 172.09641 -906.61584
48.47068 175.1534 -900.64142
41.211124 172.81812 -902.72443
41.681446 174.49944 -900.8064
34.487419 168.61725 -910.25269
32.942116 167.918 -911.90369
49.212456 168.09555 -913.07312
47.965908 168.99229 -910.52954
50.218872 169.79642 -909.22882
51.543594 168.06084 -914.07239
53.081753 168.9502 -912.50415
52.170811 169.70058 -910.20935
54.275597 169.94565 -910.8869
55.720673 170.82919 -910.02472
56.348885 171.90266 -908.28583
58.849556 172.57637 -908.77625
61.155033 172.95731 -909.75153
63.150223 173.30447 -910.70117
65.363358 173.90268 -910.81921
67.044441 174.69351 -909.44476
59.522923 171.82687 -911.23108
60.244793 171.42371 -913.40442
57.63459 170.59103 -912.31165
69.003395 175.66382 -907.93958
68.219223 176.13091 -905.58075
66.01815 175.78436 -904.94177
50.835274 181.73547 -895.26019
43.738567 118.62689 -993.84039
42.985912 115.36098 -994.7182
-2.0948136 134.21434 -974.8219
45.766083 153.87593 -957.56177
46.294144 155.60426 -956.00739
49.014294 156.7298 -955.16705
50.569576 158.86447 -953.38342
53.353306 160.97568 -953.16675
49.347588 160.67287 -950.74304
46.820282 160.38377 -950.70721
44.805897 158.64201 -952.48315
42.205833 158.9778 -950.29211
41.341858 159.85214 -947.43231
38.909885 159.5137 -944.68091
35.880192 158.35112 -944.23895
37.566341 159.98624 -942.23969
40.05751 160.91644 -941.97827
39.799335 157.93381 -949.12964
32.81678 131.65195 -969.42963
73.557999 194.46498 -943.7005
71.475754 194.30826 -944.94574
72.47361 192.47403 -943.43835
71.277405 190.45567 -943.43213
69.937309 188.36281 -943.63776
73.331413 190.70691 -942.13062
59.46867 166.04527 -938.15436
5.4218435 166.36636 -985.1015
9.4256468 168.47243 -984.70239
11.426003 171.88828 -981.88611
16.448143 171.43671 -982.35016
14.583592 174.72032 -979.0835
23.024805 168.33833 -913.25061
23.709919 169.72162 -911.26202
21.848183 171.48302 -909.71747
26.049931 169.67575 -910.41443
45.685848 129.29585 -1006.9702
44.64793 132.25078 -1007.1612
42.501049 134.80457 -1009.1016
39.289337 137.28459 -1010.6735
36.943924 135.41655 -1014.823
45.102337 133.48383 -1003.5885
44.423126 136.56886 -1001.9488
39.167709 132.33078 -1016.5732
35.459614 131.57315 -1019.8858
42.540287 129.56613 -1015.9103
43.40797 125.96841 -1018.9037
42.459885 138.5952 -1004.7024
44.331013 138.05118 -999.77887
41.113445 141.06824 -1003.9454
38.873501 142.71773 -1004.9614
39.486809 144.56282 -1002.0042
38.015129 141.3226 -1007.4403
34.053608 141.82031 -1009.5831
30.427778 139.12952 -1013.6441
41.864857 137.53377 -1007.0455
32.279957 144.62764 -1007.4504
30.427612 142.44633 -1010.215
26.310677 141.41983 -1012.0042
21.091375 143.68515 -1010.1285
43.401325 141.13156 -998.6463
41.929073 142.95172 -999.98065
42.910587 143.46434 -996.99158
43.666576 143.82372 -994.10089
44.709282 140.24243 -992.18872
41.937885 145.98846 -996.24146
39.880173 147.89745 -997.63379
40.128704 150.41629 -994.68427
39.226704 146.60287 -999.98474
37.301746 148.73639 -999.74634
34.912876 148.80234 -1001.5808
34.733116 147.01814 -1003.6727
35.639004 150.82007 -998.91083
36.134102 152.69633 -996.57068
36.633774 154.9016 -994.03735
32.987926 158.08119 -992.90924
33.694954 152.737 -998.12714
30.009363 152.26918 -1000.1059
25.815777 153.26653 -999.96265
22.7502 150.61275 -1002.9933
17.995377 151.84799 -1001.7014
12.997306 150.71532 -1002.8799
31.646873 154.90427 -996.80139
30.819117 157.00502 -994.90466
26.699789 158.72469 -994.14587
24.327225 161.69464 -991.32312
25.411665 147.60661 -1005.9138
24.155079 156.5865 -996.74316
32.359234 149.13297 -1002.6071
29.817467 148.90997 -1003.7087
28.754103 147.13991 -1005.8569
9.5053911 153.45258 -999.95349
30.383509 150.73328 -1001.6132
27.3083 148.66873 -1004.5279
25.412605 150.07445 -1003.3362
23.660778 148.9451 -1004.6794
22.838936 146.63258 -1007.1046
20.685394 149.33789 -1004.3449
18.153152 149.58194 -1004.0086
14.877469 146.78224 -1006.6628
11.668479 143.72528 -1009.4299
24.60252 151.74625 -1001.6824
21.947176 152.28908 -1001.2991
20.184431 151.04445 -1002.5959
19.701761 153.09181 -1000.4858
18.539942 156.58391 -996.93909
17.153742 153.67975 -999.84912
15.011096 152.26332 -1001.2687
13.465457 158.02434 -995.63043
19.686096 155.00633 -998.53119
21.564556 156.78995 -996.6853
12.250988 152.75839 -1000.8643
10.216605 151.43254 -1002.0922
11.606603 154.80505 -998.81293
9.0545969 155.37965 -997.87335
5.1567259 155.91391 -995.96021
6.8685193 153.78844 -998.90796
2.7058444 152.90889 -997.65997
6.77842 144.16711 -1008.3947
10.889984 140.19255 -1012.8259
14.490342 137.76451 -1015.6778
7.66643 137.33795 -1015.1749
1.4872779 134.85764 -1014.3375
19.109703 139.03497 -1014.835
20.985865 135.81189 -1018.2444
19.878656 132.22104 -1021.913
23.240925 128.48721 -1025.6221
20.603367 124.36182 -1029.8363
11.145304 135.12189 -1017.8746
10.53787 130.62862 -1022.2571
-2.592099 129.65247 -1014.1195
11.074374 156.85982 -996.68335
11.020163 158.9563 -994.61267
13.19398 160.08762 -993.66028
17.942345 160.68829 -992.89008
10.958338 161.17841 -992.38733
10.931138 163.37877 -990.16943
15.337922 165.54408 -988.33624
16.027355 158.86226 -994.76257
8.6045847 159.59418 -993.4856
6.0520968 157.93057 -994.27332
10.724184 149.3799 -1004.1422
6.1501241 148.30016 -1004.1376
13.189783 148.59717 -1004.9164
2.0140479 147.86845 -1002.1514
18.590796 158.98061 -994.5351
6.0561919 159.93803 -992.15869
5.6545615 161.71983 -990.07019
7.9754119 163.3768 -989.3689
6.9927516 164.93199 -987.36548
-0.84319592 145.0257 -1002.3002
-1.8014874 139.96025 -1005.9489
-3.3237593 141.63765 -1002.2712
-4.6106205 137.40761 -1003.7918
17.782705 168.14154 -985.52277
-4.1921005 124.68218 -1015.4506
-6.3645539 134.30463 -1002.1178
-5.8753138 130.895 -1006.0108
-7.4704647 133.73729 -997.73895
-7.4592686 137.40228 -995.31439
-6.9749599 126.37259 -1004.2417
-7.6797118 129.93343 -996.80579
-7.4452033 126.85883 -999.74384
-5.0013595 134.66327 -1005.3913
7.4981565 151.96751 -1000.9908
15.353123 131.37291 -1022.5376
8.0811863 150.16734 -1002.9664
8.3619699 148.29788 -1004.8052
6.3966484 146.43738 -1006.0387
4.5597444 144.66736 -1006.9813
1.8814242 141.16783 -1008.6165
4.2672172 142.50781 -1008.9806
3.9048054 146.48415 -1004.7711
5.7443285 150.07631 -1002.2346
4.064949 148.29262 -1003.1039
3.1573913 149.61189 -1001.2681
0.7116918 149.21429 -999.85468
-1.526456 147.51411 -999.30914
2.5612817 151.04291 -999.45404
-3.9586306 147.0818 -996.29578
-6.0038552 145.05952 -993.72186
-7.4142246 143.73079 -989.78076
-6.4121938 146.95291 -990.25024
-7.9733982 143.5442 -985.3725
-5.14395 150.18761 -990.12366
0.84810895 151.46811 -997.71265
-0.93865633 151.77724 -995.57849
1.0282458 153.31883 -995.88794
-2.8655024 149.58415 -995.44196
-0.44581306 153.76019 -993.94574
-0.5411129 155.44202 -991.97229
1.3829589 157.45464 -991.69458
-2.2839682 154.75455 -990.40295
-2.9726169 156.02705 -987.84833
-4.7147579 154.90962 -985.77539
-6.0360847 152.36295 -985.32288
-3.9172139 152.33409 -990.36035
-3.8699775 150.89 -992.16583
2.8682272 154.6413 -995.92993
3.5131607 156.45857 -994.42548
-1.3648355 158.27654 -987.68622
0.86396492 159.18445 -989.29272
2.7458866 161.35872 -988.56152
-1.6796925 159.83748 -985.68158
-3.2949767 159.63615 -983.79242
-4.8790512 156.73608 -983.77179
-0.98698372 161.8024 -984.6123
-0.8108331 163.80762 -983.10541
-2.7738631 164.71246 -981.04974
-3.4981961 167.19333 -979.6731
-7.422586 167.96973 -978.42212
-11.289944 170.07716 -977.79895
-15.609422 172.51685 -977.98425
-9.1033211 163.6545 -977.84595
-19.31661 169.07486 -977.72412
-19.375351 163.87849 -975.23328
1.0357198 162.72273 -985.6665
2.929204 163.51228 -986.40875
-4.7691317 162.32858 -980.69092
-7.1697168 161.94568 -978.96509
-8.3877449 159.34674 -977.95319
-10.443524 156.95714 -975.00952
-13.566412 159.08565 -973.49799
-15.549902 156.79117 -969.92792
-19.391697 155.48914 -966.88354
-24.705 156.39172 -969.79211
-15.287057 162.76433 -974.95703
-9.7556496 154.06004 -974.2713
-12.617843 153.8051 -968.40186
-10.236347 152.86835 -971.60236
-1.4169844 169.51945 -979.50592
-2.7437575 171.99028 -978.43317
-0.66129053 176.27103 -977.16467
1.2867556 169.48938 -980.4267
5.1581926 172.9718 -979.56921
-5.464901 175.05493 -977.45807
-8.5375748 177.63354 -977.04266
-11.500892 180.56615 -977.15253
-7.3163333 181.14421 -976.30017
-5.9727573 184.82187 -975.2627
-4.6365118 188.72089 -973.79248
-3.4416442 181.74455 -975.50751
-9.5391026 174.06987 -977.65637
-8.7683983 187.6526 -974.67328
-12.287771 187.01451 -975.65057
-15.817859 186.09407 -977.02228
-19.096577 188.47098 -976.35364
-20.183634 184.68433 -978.86963
-20.57239 180.25735 -979.58051
-23.75878 184.46031 -980.08594
-27.083828 187.41788 -979.29675
-25.849751 191.08659 -976.83838
-28.180996 183.86211 -981.474
-29.385027 179.36137 -982.03888
-29.587059 189.98218 -978.3172
-34.759182 190.3243 -979.44019
-36.208961 184.86162 -982.57941
-35.026802 195.20508 -978.11517
-30.796253 175.24716 -982.31146
-36.351543 173.17497 -983.83203
-31.334362 170.21825 -981.97217
-42.380016 173.36681 -985.13898
-47.459171 167.0468 -985.11755
-18.832212 191.15302 -974.85034
-17.230082 195.72058 -973.62964
-20.172668 198.53189 -973.46161
-22.454548 201.50575 -971.58453
-20.35914 204.91696 -968.06122
-25.055363 204.15404 -969.25916
-24.153416 197.65005 -974.75854
-28.319525 198.35236 -975.0105
-32.364017 183.08301 -982.64832
-39.457649 197.51411 -977.07611
-27.555769 167.66046 -979.68524
-27.730242 163.13612 -977.44781
-32.813274 160.28268 -977.6925
-23.994581 161.27638 -974.57208
-37.249851 163.25667 -981.19281
-43.637272 162.92961 -982.58356
-50.527641 161.13046 -983.00385
-4.9691868 192.57361 -972.6084
-22.366776 191.09691 -975.89697
-0.88431484 188.99409 -973.12579
2.3086154 185.17169 -973.45667
6.5674548 186.60004 -972.05621
-12.165071 190.15083 -973.70349
-14.998856 192.48976 -973.41046
-10.846919 193.30885 -972.54279
-10.444463 197.39476 -971.73785
-15.344317 178.75026 -978.03271
-29.654854 201.0127 -972.64014
-32.372131 203.57741 -970.19592
-33.985538 205.96506 -967.15625
-36.283318 203.51968 -970.37097
-40.662594 203.2478 -970.711
-45.137062 202.78217 -970.64673
-42.972569 205.02757 -967.30225
-40.645496 206.88849 -963.92126
-38.170639 208.36627 -961.04999
-44.817253 206.23576 -963.21088
-46.665802 206.69862 -959.27393
-49.180408 205.20213 -962.61255
-53.745335 204.39359 -962.34705
-38.544189 201.02881 -973.45538
-35.759487 198.82062 -975.48511
-32.062138 197.86053 -976.01978
-55.587315 204.76624 -958.15411
-53.097794 206.15456 -954.66333
-31.303274 208.07083 -964.49237
-27.828974 210.79384 -959.29443
-39.853313 209.01569 -957.39996
-35.557602 209.85547 -957.67499
-32.391403 211.55312 -953.74982
-31.751965 210.48784 -957.84583
-41.742485 209.71693 -953.92627
-43.574989 211.29762 -949.20349
-44.130386 208.25867 -956.12415
-35.550095 212.74142 -949.70044
-49.023628 206.98953 -955.74396
-39.64217 211.45514 -951.07275
-35.456787 168.12022 -982.80316
-49.398159 208.72995 -951.54065
-50.233822 209.01656 -947.14728
-50.2915 207.73515 -942.77173
-45.869415 208.17548 -940.03741
-54.414314 206.51552 -945.33783
-58.025166 203.49765 -943.31671
-61.6572 199.88176 -941.78937
-57.693123 205.05913 -949.01532
-56.96312 201.80547 -938.86346
-52.520874 203.18852 -936.2583
-49.751083 205.95634 -938.44232
-42.479256 210.36635 -942.30591
-37.833031 210.62978 -940.37177
-36.517479 207.98053 -936.77893
-46.608669 210.40617 -948.99762
-59.843445 198.23828 -937.06708
-58.336246 194.70827 -932.29797
-61.686745 189.83586 -932.05188
-51.318134 200.61313 -932.18219
-46.508751 200.20024 -930.71759
-54.140488 196.76759 -930.67035
-52.296524 193.38385 -927.36066
-52.925819 187.42442 -925.02551
-57.117081 184.49181 -927.05286
-58.925346 178.22083 -928.98999
-65.532379 176.30734 -932.48486
-53.726994 174.03232 -927.81189
-54.446526 166.45551 -929.79376
-47.389999 174.56947 -924.71173
-49.632957 161.60297 -930.40851
-5.8842692 142.83194 -996.22449
-5.5513105 140.51424 -999.00562
-23.345068 170.92659 -979.33698
-6.2588096 156.58284 -981.2962
-7.2582898 154.63437 -980.03229
-7.2410421 152.3638 -981.2702
-7.6229234 149.13672 -982.31134
-7.9534626 152.68918 -978.53516
-8.1840162 150.64069 -976.8952
-7.8689013 148.35318 -975.78223
-7.7113118 148.28217 -972.9137
-7.194519 148.03819 -970.09082
-7.9135389 148.2303 -978.29803
-8.768672 150.43599 -971.39819
-7.3091054 146.15961 -974.63501
-7.0201669 143.31017 -975.8161
-7.6048679 143.02237 -978.59369
-7.8895545 145.75906 -979.2218
-7.9476137 144.28311 -980.75049
-8.0119791 144.04674 -983.22595
-8.0540953 141.5977 -984.00366
-7.997756 138.98358 -984.96143
-7.9558067 136.86154 -986.64386
-7.7798848 146.38673 -984.25409
-7.8565173 141.99713 -981.15753
-7.383738 140.2869 -979.83423
-7.097436 137.91229 -981.00372
-29.654631 154.45963 -969.87921
-31.86207 151.73373 -966.35803
-29.603067 150.71866 -961.67853
-24.740688 151.7347 -960.60815
-31.510899 149.67805 -956.9054
-36.847691 150.17847 -966.13623
-39.674263 151.15471 -969.66992
-42.581692 149.22626 -966.58575
-47.778152 148.24039 -965.07648
-54.073185 146.65651 -961.40332
-41.449104 153.42285 -973.96716
-45.731327 155.33847 -977.42175
-36.436813 155.33487 -974.32623
-48.904545 147.28894 -960.33057
-45.44585 147.48192 -955.49152
-59.875504 146.03514 -957.71759
-66.856621 146.27573 -957.22784
-70.732681 147.81744 -963.39752
-66.950974 148.33318 -970.36841
-48.278816 152.3284 -974.38281
-54.654469 150.82399 -974.31378
-57.547775 153.66299 -978.84009
-58.702702 148.23203 -970.73071
-60.368687 147.57642 -951.18317
-53.977261 149.72112 -947.73486
-50.916985 203.71506 -966.0199
-52.248623 201.98947 -969.55835
-55.965469 201.51089 -969.69391
-53.527225 200.15791 -972.66022
-51.403748 198.15967 -975.80249
-46.906994 198.60667 -975.93628
-55.585552 198.19344 -975.40588
-59.474373 198.11725 -975.42822
-63.381065 199.43362 -971.92804
-57.314991 195.82954 -978.44366
-55.558487 192.82858 -981.26367
-59.758789 193.72887 -980.86816
-62.850201 191.88705 -982.68439
-62.555115 188.40669 -985.22577
-67.98999 188.13614 -984.95966
-70.808784 182.96814 -985.66321
-60.238171 183.84369 -987.13818
-57.083431 179.57249 -988.04132
-62.605999 179.45816 -988.76202
-65.588318 174.6216 -988.95221
-73.252907 178.9099 -983.19208
-62.949497 197.94048 -975.1427
-65.23613 195.9576 -977.68445
-68.058838 194.11488 -979.30829
-71.609604 193.93159 -977.08344
-71.886742 196.24402 -972.78705
-74.501656 192.47157 -974.89893
-76.006165 187.47249 -975.60272
-76.69838 180.85011 -975.1123
-70.501373 191.64122 -980.90228
-72.574066 188.06929 -981.76007
-76.735664 189.63972 -971.96014
-77.802254 190.5838 -966.8786
-66.755287 197.71216 -973.82983
-51.986256 180.4005 -987.06567
-50.175716 196.3494 -978.01801
-49.645016 193.09428 -980.51862
-46.396797 189.23972 -981.49603
-47.28587 179.08632 -986.48309
-68.827171 170.48987 -987.27716
-72.717377 172.19879 -983.39288
-62.174389 169.91521 -988.74432
-56.412537 170.17215 -988.01831
-59.952442 165.31705 -987.28571
-63.268318 161.77615 -985.77087
-67.146179 158.07516 -982.63837
-68.737526 162.22279 -984.5116
-67.553078 153.05132 -977.60278
-72.658943 153.18111 -971.80786
-57.541069 161.21051 -984.94836
-56.086403 157.54231 -982.04205
-58.480953 202.29051 -966.98608
-60.447941 202.74614 -963.88702
-63.514679 202.12274 -960.5
-60.233261 200.9054 -969.88257
-51.631802 169.631 -986.87445
-49.22073 202.6848 -969.31201
-56.860058 203.80956 -962.8186
-63.639462 201.80042 -963.55609
-65.509323 200.39525 -967.43762
-69.102104 199.50333 -965.80646
-70.905472 199.04497 -962.25238
-74.329033 197.09303 -960.19037
-71.954597 197.68753 -968.62555
-68.925446 199.82639 -959.9245
-68.249611 199.59338 -955.9021
-70.300362 197.56181 -953.46338
-71.455254 194.76935 -950.64343
-73.541176 196.31668 -955.04803
-76.338432 194.50835 -955.85858
-78.715744 191.0173 -956.73151
-78.135315 190.40363 -952.01196
-66.586098 199.67798 -952.62592
-64.940048 199.56897 -948.22449
-62.906441 201.80267 -951.82019
-74.635872 195.76622 -968.25787
-76.632576 194.50502 -964.50244
-79.637138 187.28711 -959.02917
-80.385818 180.91954 -957.96588
-80.68235 174.53607 -954.44617
