# .PCD v0.7 - Point Cloud Data file format
VERSION 0.7
FIELDS x y z
SIZE 4 4 4
TYPE F F F
COUNT 1 1 1
WIDTH 1472
HEIGHT 1
VIEWPOINT 0 0 0 1 0 0 0
POINTS 1472
DATA ascii
-181.61069 -78.045746 -1020.6726
-181.18404 -86.1185 -1018.8861
-179.00064 -77.243835 -1016.7518
-166.80411 -84.763893 -1033.2531
-169.45438 -89.113518 -1030.6155
-183.94838 -78.712776 -1024.381
-186.89696 -74.989204 -1027.249
-185.99902 -79.4673 -1028.7859
-185.67297 -70.745605 -1025.255
-154.18961 -73.241646 -1041.7501
-174.16008 -76.763855 -1036.3085
-172.75356 -74.628838 -1037.6691
-176.4433 -74.998566 -1037.02
-181.81776 -73.859482 -1036.642
-178.80414 -72.679688 -1037.9043
-177.95671 -69.673073 -1039.7184
-180.22353 -65.044518 -1040.3542
-184.43727 -63.546169 -1038.2455
-186.32144 -58.82616 -1038.9933
-184.03752 -55.637062 -1043.8926
-188.58459 -71.980545 -1034.7439
-177.68784 -62.307243 -1043.3911
-188.38551 -65.510376 -1035.7476
-188.59584 -64.158463 -1030.5488
-186.03699 -65.12886 -1026.5459
-169.97701 -74.856812 -1037.9484
-176.38632 -80.077156 -1034.2795
-179.57582 -79.506485 -1034.1913
-182.86542 -79.275742 -1033.7507
-177.56203 -82.291092 -1033.0343
-181.18794 -77.034195 -1035.197
-179.74181 -83.856819 -1032.0126
-183.50687 -83.53289 -1030.1599
-185.03763 -60.440323 -1029.8534
-181.59285 -57.492867 -1028.7627
-184.55139 -56.758118 -1032.8735
-179.45779 -58.37035 -1024.6764
-181.37776 -54.550625 -1031.7654
-179.51408 -52.077877 -1034.1794
-177.76677 -50.102837 -1037.7422
-173.90515 -48.232307 -1040.4847
-182.13997 -51.363609 -1039.0935
-177.36586 -52.378616 -1031.2201
-175.17722 -52.201084 -1027.2473
-173.59126 -49.94305 -1030.976
-172.55931 -48.561287 -1033.7247
-169.3595 -46.618465 -1032.5786
-166.84772 -44.563576 -1035.1539
-168.33826 -45.995934 -1028.5216
-165.68509 -44.222481 -1026.3418
-176.77231 -54.28159 -1025.9825
-174.446 -48.902142 -1037.2332
-175.13156 -52.48716 -1022.1653
-176.23726 -53.40414 -1018.1749
-177.79002 -57.834347 -1017.6624
-173.94458 -50.324562 -1020.9661
-171.63435 -47.458427 -1021.5264
-170.37584 -44.986809 -1018.5862
-171.21776 -43.711067 -1013.9806
-175.00867 -50.597092 -1017.6046
-174.54535 -48.147171 -1014.4418
-176.28378 -50.383022 -1011.2482
-176.01875 -48.547649 -1007.0902
-177.187 -52.775509 -1007.6909
-177.13548 -55.915382 -1004.9885
-171.76054 -48.573093 -1024.9022
-168.32077 -44.299843 -1020.7643
-166.68758 -44.123802 -1023.2758
-166.03419 -42.947292 -1020.5275
-162.23196 -41.548603 -1019.8572
-165.31786 -41.289871 -1017.0543
-164.72949 -39.836643 -1014.4927
-167.28214 -41.246735 -1014.8958
-159.68738 -40.732544 -1018.5064
-159.60457 -39.311581 -1015.6065
-157.33939 -37.310127 -1012.1938
-156.23087 -40.83437 -1018.5138
-152.91057 -42.548256 -1021.6304
-153.51912 -40.556835 -1017.2684
-152.74637 -39.158287 -1014.5125
-153.57573 -37.580975 -1012.08
-151.24411 -36.298161 -1009.3317
-147.43254 -37.655373 -1010.1999
-143.40866 -37.847481 -1008.6857
-146.44701 -40.164188 -1013.9599
-149.43201 -40.087101 -1015.058
-147.26398 -41.246319 -1016.2253
-147.7529 -42.931526 -1019.85
-144.9935 -44.206749 -1021.1859
-142.12993 -44.760509 -1020.2781
-141.11461 -43.28054 -1016.5261
-137.67465 -44.166145 -1015.63
-134.16042 -46.587952 -1016.7301
-138.32014 -41.967896 -1012.4347
-140.45543 -39.82756 -1010.2682
-145.16931 -45.06406 -1024.1624
-148.51628 -44.695862 -1027.1145
-143.36369 -45.992256 -1026.3927
-144.56015 -45.859943 -1029.5397
-139.87306 -47.192528 -1026.2153
-135.88579 -48.780354 -1028.0206
-144.75984 -45.340881 -1034.1862
-148.69281 -44.001305 -1035.7012
-140.20985 -45.950989 -1021.4637
-137.16112 -46.772743 -1020.4126
-160.67787 -42.239426 -1022.671
-162.01106 -42.880898 -1024.9294
-162.69821 -43.389599 -1029.1184
-158.92708 -42.917076 -1031.8359
-157.92279 -42.636227 -1024.4242
-155.78563 -43.184025 -1026.4343
-154.6087 -42.952877 -1023.9666
-154.494 -43.550663 -1029.301
-151.35661 -44.095577 -1031.5466
-151.97318 -43.307827 -1035.2289
-155.55617 -42.272564 -1036.5291
-152.0322 -43.367615 -1023.8137
-150.04971 -43.128902 -1021.6751
-162.98795 -43.104237 -1033.9012
-173.18718 -50.279266 -1026.7417
-172.22255 -45.632973 -1015.9268
-164.51537 -38.332893 -1011.8318
-164.35695 -36.901188 -1009.2351
-163.16525 -34.778885 -1005.7156
-166.68416 -38.210815 -1009.5068
-168.90268 -39.878704 -1009.7743
-172.15265 -43.108528 -1010.0514
-160.0743 -35.357517 -1008.582
-165.35818 -34.528572 -1002.9042
-168.69215 -38.555935 -1007.29
-170.68034 -38.67379 -1003.4726
-173.59195 -43.863438 -1007.0892
-173.63622 -42.492321 -1003.4567
-174.99326 -43.72364 -999.73419
-167.95815 -36.465889 -1003.7791
-162.17119 -38.829102 -1014.0588
-135.0712 -48.536236 -1022.6891
-132.66734 -49.866398 -1023.5121
-129.13275 -51.710236 -1024.8801
-134.81465 -49.119854 -1025.6326
-130.15294 -50.874691 -1020.6349
-128.8829 -51.395042 -1018.2674
-126.83852 -53.549904 -1018.7763
-125.43698 -54.514317 -1021.3811
-124.887 -55.565697 -1018.5806
-124.57644 -56.568432 -1016.1378
-123.08474 -57.858208 -1018.1116
-121.36991 -60.061363 -1017.982
-121.97636 -61.341095 -1015.742
-123.667 -60.053196 -1012.9492
-121.30258 -58.565189 -1020.1238
-120.55816 -56.868267 -1024.1349
-118.96047 -59.092705 -1022.1966
-116.9339 -60.80759 -1021.9148
-113.23258 -61.730515 -1023.6897
-111.47945 -59.962246 -1027.1597
-106.69877 -60.580315 -1029.6393
-119.67914 -62.24884 -1018.0278
-117.49877 -64.420807 -1018.3568
-115.02047 -68.063744 -1017.928
-111.18991 -67.16124 -1020.5507
-117.82924 -66.853577 -1016.7833
-120.12471 -66.906548 -1014.8408
-117.46065 -62.450859 -1019.8541
-113.45837 -70.572922 -1017.4938
-114.18098 -73.223846 -1015.8462
-112.05182 -72.934357 -1017.0369
-108.22038 -74.248238 -1018.2692
-106.35916 -71.473572 -1020.7545
-106.87338 -77.578003 -1017.4099
-102.79757 -78.214844 -1019.283
-105.07436 -81.108383 -1016.9626
-103.47689 -71.381142 -1022.5438
-101.88519 -68.041069 -1025.4375
-112.51412 -75.66748 -1015.5626
-112.60429 -78.416679 -1014.4127
-115.74625 -79.481071 -1012.63
-109.38657 -80.607079 -1015.0603
-111.2322 -64.498573 -1022.3679
-108.0555 -65.824989 -1023.3547
-104.91515 -65.659668 -1025.4799
-130.93704 -49.428661 -1017.9957
-131.66986 -47.623058 -1015.5289
-106.25502 -62.82523 -1027.3389
-124.39943 -57.489429 -1013.8029
-126.78944 -53.101498 -1024.1462
-127.31232 -52.370689 -1026.8563
-129.8873 -51.117905 -1027.4899
-131.76436 -50.220253 -1029.0294
-107.81873 -57.695503 -1033.0192
-117.06094 -73.37957 -1014.2532
-144.65004 -41.499077 -1015.4018
-127.97829 -51.68092 -1029.0934
-127.00633 -51.477615 -1031.5455
-128.19504 -50.447117 -1033.7577
-179.37869 -75.052544 -1036.6158
-160.2112 -74.844231 -1039.807
-159.69263 -77.17588 -1038.6532
-159.55322 -79.560089 -1037.3739
-157.02165 -78.441505 -1038.4611
-154.29829 -79.57885 -1038.2892
-159.4368 -82.140556 -1036.0081
-159.32236 -84.732704 -1034.6541
-156.71637 -83.446884 -1035.8081
-161.98143 -85.775192 -1033.6124
-153.7193 -82.707809 -1036.7047
-149.7933 -84.146805 -1036.3163
-161.67772 -88.012177 -1032.498
-159.37416 -89.972351 -1031.8572
-158.53215 -92.739029 -1030.5406
-159.56259 -95.439255 -1028.924
-162.63414 -94.561783 -1028.9431
-155.74376 -92.435989 -1031.1219
-153.63895 -94.377251 -1030.3218
-151.4063 -92.056061 -1031.797
-154.9437 -77.10128 -1039.5376
-156.7574 -88.77758 -1032.9465
-154.52101 -87.628914 -1033.9385
-156.82498 -86.184776 -1034.3473
-148.1454 -82.300133 -1037.3973
-152.08846 -86.668098 -1034.7607
-152.43463 -96.52253 -1029.2703
-152.29404 -89.049919 -1033.4054
-150.29655 -90.195274 -1032.9012
-147.77625 -89.312798 -1033.4585
-147.64737 -87.111298 -1034.689
-147.64424 -84.785118 -1036.0139
-145.68997 -83.314064 -1036.821
-145.2253 -81.036407 -1038.1044
-143.06325 -82.464668 -1037.1866
-140.22089 -82.245651 -1037.0653
-139.18669 -79.997459 -1038.2711
-143.95187 -79.082047 -1039.1815
-141.35799 -78.232811 -1039.5111
-163.94284 -89.337067 -1031.4302
-154.68344 -96.889847 -1028.8091
-159.82857 -37.892307 -1013.0232
-159.58615 -36.504829 -1010.7213
-159.33812 -72.764778 -1041.0688
-106.03398 -56.102337 -1036.6042
-166.45728 -88.721893 -1031.3114
-153.83846 -35.787643 -1009.1846
-154.52119 -34.34375 -1006.9045
-156.74286 -33.77829 -1006.0877
-157.71408 -32.778492 -1003.9512
-159.92685 -32.355976 -1002.1113
-160.85297 -31.431192 -999.70203
-156.33429 -31.894793 -1002.1371
-154.6366 -30.735247 -999.76685
-153.61757 -32.063046 -1002.4616
-152.65329 -33.354542 -1004.7217
-158.83492 -34.3344 -1006.964
-150.22362 -33.838219 -1004.8899
-149.85887 -35.332027 -1007.2905
-161.04961 -34.463917 -1006.4634
-161.59808 -33.575703 -1004.1086
-163.6315 -34.061207 -1003.6565
-165.50179 -35.453197 -1004.8705
-156.50169 -29.890312 -997.85828
-156.31099 -28.600061 -995.45642
-153.23651 -28.010052 -994.22925
-158.49727 -27.707119 -993.60596
-161.10634 -28.23905 -993.70978
-162.45065 -29.871126 -996.11145
-163.51877 -28.128233 -991.71942
-163.96529 -27.379061 -989.0921
-165.8904 -28.944923 -990.28217
-164.01956 -25.998932 -985.04156
-166.78519 -27.574696 -983.14771
-169.01823 -30.320526 -984.48138
-167.67567 -30.675562 -991.59949
-168.02788 -30.275602 -989.01971
-169.87132 -31.876451 -987.22229
-172.45874 -35.764565 -987.74811
-173.21469 -37.59465 -982.81635
-150.26991 -27.823368 -993.45282
-151.49304 -28.911087 -995.79541
-151.84262 -30.078787 -998.20654
-149.83243 -31.143648 -999.85205
-148.30818 -27.151457 -991.62793
-145.40022 -27.23634 -990.99066
-174.24191 -39.809002 -989.43182
-169.54829 -30.497952 -981.75482
-148.97838 -28.975863 -995.42047
-146.48036 -29.682409 -995.96259
-144.03891 -29.680235 -995.00427
-141.10725 -30.516142 -995.05255
-147.19763 -30.845652 -998.35901
-167.18617 -31.210129 -994.18213
-167.09557 -32.217216 -996.50586
-166.8 -33.293976 -998.96124
-168.73531 -33.899353 -997.54572
-171.79352 -37.022865 -997.55908
-170.72878 -35.103462 -995.96509
-170.9735 -34.524239 -993.40717
-172.34357 -36.878983 -995.04187
-173.83856 -39.215858 -994.08337
-173.42593 -39.08009 -996.50397
-174.98183 -41.927715 -993.10895
-175.55861 -44.10585 -994.46411
-175.73787 -45.229912 -997.04169
-172.6501 -38.830379 -998.83893
-170.96199 -37.296074 -1000.1279
-173.99969 -41.008469 -998.61298
-165.11064 -30.543159 -995.38928
-171.91705 -35.238876 -990.50134
-173.11417 -37.209995 -989.87598
-173.5798 -38.089767 -987.52802
-172.88617 -36.51347 -985.32825
-171.52846 -33.994267 -985.74927
-172.28427 -35.273556 -983.03192
-172.51343 -36.176521 -980.04315
-171.61879 -33.94965 -980.90527
-173.808 -38.931774 -985.15387
-173.92632 -41.780056 -982.05792
-171.18106 -33.791973 -988.48639
-173.68301 -38.597408 -991.65955
-174.34615 -40.395088 -987.16156
-174.94133 -42.603813 -988.45819
-174.87585 -44.97715 -986.5343
-174.38872 -44.165691 -984.01477
-174.2282 -46.917751 -984.39581
-173.15895 -49.007847 -982.60223
-173.88193 -49.530548 -985.36981
-174.60074 -49.925423 -988.23254
-175.41306 -48.009209 -990.34235
-173.86812 -52.673805 -989.00555
-172.54268 -47.865528 -979.84143
-172.88649 -44.971722 -978.92493
-170.99498 -49.796707 -977.95776
-170.00867 -49.209045 -975.32275
-170.91599 -45.102314 -973.68048
-172.33554 -54.519028 -987.32379
-171.38406 -54.203236 -984.73926
-171.26443 -56.892456 -988.31433
-169.55472 -55.37989 -982.8941
-167.84491 -57.638172 -983.73126
-168.44029 -58.774876 -986.23669
-174.37529 -53.568096 -991.69501
-165.32135 -59.051777 -982.87079
-175.29164 -45.636177 -989.03937
-175.32465 -52.099854 -993.46808
-175.718 -49.381165 -992.99512
-175.25613 -53.94067 -995.02246
-176.04602 -54.290306 -998.35223
-176.06474 -49.425812 -995.55695
-176.37042 -50.251942 -998.06104
-176.6461 -50.639793 -1000.7996
-176.34317 -48.767513 -1003.8773
-176.74863 -52.942822 -1001.016
-176.98056 -54.381065 -1003.0142
-177.1926 -53.308018 -1005.2159
-176.81941 -50.769573 -1005.6641
-176.62383 -56.861141 -1002.876
-175.79753 -59.228916 -1002.2296
-176.70372 -58.649261 -1005.0546
-176.83751 -60.532307 -1007.6812
-174.85902 -59.164047 -999.38129
-175.21472 -57.014538 -998.05035
-177.39638 -54.933704 -1007.1746
-177.46812 -54.728638 -1009.6082
-177.63303 -56.268097 -1012.4186
-177.03064 -52.432938 -1010.2797
-176.63303 -50.609505 -1008.5687
-177.27261 -57.423328 -1007.0186
-175.6965 -48.542908 -1009.7768
-174.80161 -46.381477 -1008.5112
-177.33638 -54.271511 -1011.9143
-173.53571 -44.72308 -1009.6047
-172.7211 -44.70491 -1012.3986
-175.22545 -46.484955 -1006.2408
-173.78755 -55.78511 -992.62939
-172.27965 -57.570168 -991.25861
-170.58485 -59.273022 -990.21033
-169.36086 -61.491364 -991.43048
-167.01364 -62.902344 -990.61578
-165.81078 -64.833191 -992.48212
-170.54741 -61.82505 -993.8399
-173.14949 -58.042553 -993.78021
-174.07059 -58.326008 -996.36847
-172.43465 -60.20396 -995.01013
-171.47299 -62.471905 -996.3797
-172.45718 -62.904972 -998.76276
-171.51939 -64.946526 -1000.0209
-172.28462 -65.899841 -1002.4679
-169.32678 -66.519226 -999.31836
-167.03479 -67.746361 -998.58606
-165.03354 -70.492378 -1000.7877
-167.94673 -71.565048 -1004.1821
-164.53439 -68.923622 -998.01294
-162.1633 -68.873436 -995.93402
-160.16225 -69.19136 -994.87646
-168.29591 -65.845093 -997.00464
-167.1571 -65.250816 -994.64227
-165.60857 -62.460701 -988.36304
-163.17268 -63.308132 -987.39062
-169.45636 -63.833435 -995.29236
-164.22632 -66.745384 -994.15552
-163.52487 -65.791321 -991.81842
-161.11845 -66.518738 -990.96271
-158.64966 -67.363007 -990.47583
-157.19986 -66.756012 -988.3515
-162.24818 -64.970177 -989.27814
-172.05666 -44.25235 -976.06476
-172.87419 -42.203007 -977.68518
-175.17928 -48.285252 -1012.1311
-175.69482 -49.913822 -1013.5689
-176.57051 -51.807407 -1012.8464
-176.02702 -51.542744 -1015.2782
-176.55536 -53.319736 -1016.2679
-177.37462 -55.663136 -1015.2811
-172.4684 -51.605793 -983.65997
-170.90294 -53.207756 -982.17773
-170.44676 -67.131165 -1001.4915
-169.6524 -69.490891 -1003.438
-166.87303 -60.723999 -987.12018
-166.39226 -59.617409 -984.89899
-164.37128 -32.51688 -999.7431
-154.92122 -67.087776 -987.34662
-168.23051 -50.409019 -973.5246
-166.15488 -51.498199 -971.98981
-165.49652 -50.351704 -969.48419
-166.95404 -48.048973 -968.54431
-168.74283 -46.68832 -970.24774
-168.09282 -45.562859 -967.85376
-169.01413 -42.57682 -966.98242
-164.98801 -49.106312 -967.00299
-161.77686 -49.864773 -964.38525
-164.13052 -47.974735 -964.35913
-165.58492 -45.652828 -963.49695
-163.86469 -52.260998 -970.49744
-161.53505 -52.918507 -969.19922
-160.72069 -51.848251 -966.52728
-161.95105 -54.141685 -971.56671
-169.38708 -47.835972 -972.69434
-166.93866 -52.498528 -974.37665
-170.21721 -41.43391 -969.10162
-170.74672 -42.493748 -971.26776
-171.37331 -40.380192 -971.84448
-172.12624 -39.656242 -974.36292
-171.6031 -38.03841 -972.15283
-172.39207 -41.39098 -975.75409
-145.07632 -31.834326 -999.25842
-142.55553 -32.314941 -998.87787
-144.70091 -32.978199 -1001.0876
-145.42999 -33.993656 -1003.2123
-143.25771 -35.356369 -1004.5045
-145.95439 -34.997524 -1005.1788
-144.58195 -36.199936 -1006.5678
-148.25668 -34.734329 -1005.6963
-145.74438 -37.067299 -1008.5262
-145.07489 -38.460987 -1010.494
-142.6797 -39.412014 -1010.8268
-144.50761 -39.899094 -1012.5743
-178.54652 -52.598896 -1047.056
-129.13545 -84.298531 -1035.17
-126.67679 -85.361008 -1035.0068
-123.41438 -85.05825 -1035.8174
-120.95153 -86.773979 -1035.582
-152.81651 -39.512371 -1053.0291
-156.14047 -59.888374 -1048.2446
-115.58944 -72.193665 -1043.5942
-114.23371 -73.792702 -1043.3173
-111.97596 -73.908813 -1043.9288
-110.4003 -71.988388 -1045.2017
-107.54299 -72.331833 -1045.7614
-106.46843 -76.48233 -1044.024
-113.42963 -75.76609 -1042.6858
-111.00231 -76.045471 -1043.2097
-108.66374 -76.674713 -1043.4615
-115.10984 -76.997307 -1041.655
-113.76609 -78.74791 -1041.2174
-114.4677 -80.582405 -1040.1444
-116.79862 -80.515274 -1039.571
-118.03813 -82.008049 -1038.5175
-111.72495 -79.537628 -1041.369
-109.48464 -80.854301 -1041.2737
-106.53146 -81.490288 -1041.6075
-110.19616 -78.347137 -1042.3123
-119.97241 -82.475876 -1037.8135
-119.59056 -84.751419 -1036.8209
-122.11189 -81.244026 -1037.8933
-117.43442 -83.996246 -1037.6991
-113.55797 -82.543381 -1039.4191
-114.01944 -84.36132 -1038.4015
-105.76342 -79.095436 -1042.8992
-103.71107 -81.652763 -1042.0542
-115.59876 -85.371277 -1037.4989
-115.25234 -87.363235 -1036.6741
-117.67209 -87.992722 -1035.8118
-123.66227 -82.844009 -1036.8032
-125.15118 -81.213997 -1037.2208
-113.59319 5.4239311 -927.7334
-113.94077 3.1120358 -929.16425
-176.99992 -20.89978 -900.34729
-171.40007 -4.1491427 -938.63916
-28.300045 -15.96032 -851.71759
-108.9367 -70.26458 -1046.3359
-109.05885 -67.782639 -1047.3788
-91.585327 -29.0788 -863.08588
-83.605934 24.186146 -884.13654
-80.612816 23.335308 -886.7652
-81.914696 23.842169 -890.64032
-81.796616 22.962534 -881.11804
-69.641739 -9.7378674 -914.48151
-71.156174 -11.195906 -914.95502
-108.62846 -91.412605 -1036.2784
-101.62206 -26.780256 -862.68689
-103.52418 -27.5867 -863.8277
-105.70107 -26.43927 -863.5625
-107.41066 -27.456972 -865.02808
-109.55476 -26.51646 -865.35016
-110.33602 -24.46196 -864.23853
-106.56639 -24.228312 -862.22498
-105.02399 -22.922974 -860.87323
-108.99394 -23.186104 -862.54828
-112.41485 -23.750807 -865.17493
-113.63389 -24.647129 -866.99054
-112.95222 -26.491825 -867.85565
-111.06657 -27.443089 -867.14557
-110.78946 -29.171507 -868.52167
-112.05964 -30.003897 -870.26654
-108.70585 -30.321674 -868.44745
-107.89386 -31.914492 -869.91321
-106.9082 -29.714392 -866.92365
-104.54893 -30.405598 -866.78326
-109.01354 -32.672997 -871.51373
-111.40103 -32.224625 -872.32208
-113.43895 -21.650455 -864.36737
-112.43758 -20.445873 -862.65253
-110.40269 -20.690487 -861.63721
-109.00597 -19.109123 -860.12073
-108.97763 -16.491432 -858.98401
-115.5705 -20.566126 -865.28241
-113.22231 -18.487326 -861.75177
-114.43564 -16.097212 -860.89679
-115.20598 -17.697523 -862.45587
-116.68058 -18.38204 -864.10492
-118.54889 -17.042353 -864.14368
-119.58409 -17.905766 -865.73889
-119.3573 -15.334458 -863.11249
-121.92249 -14.250015 -863.52527
-117.42966 -14.793287 -861.59998
-117.80075 -12.841257 -860.68146
-116.73149 -21.337667 -866.93396
-115.70261 -23.384939 -867.92102
-117.20424 -23.962175 -869.51471
-116.81435 -26.148563 -871.00128
-119.3591 -23.079922 -870.03888
-122.00253 -23.582273 -871.47675
-120.49023 -20.882479 -868.77423
-106.8689 -14.584592 -858.16577
-106.97498 -11.932867 -858.21832
-119.15874 -19.74641 -867.16962
-121.53874 -17.212578 -866.19281
-122.65675 -15.516938 -865.11951
-123.22235 -17.54179 -867.27875
-122.88739 -19.564938 -868.71344
-114.45227 -26.931526 -869.60297
-121.73238 -12.448737 -861.99792
-119.9803 -11.573836 -860.89069
-114.46062 -35.557007 -887.05908
-69.264008 -1.1957794 -855.27808
-67.052727 -1.3116269 -855.20306
-65.422592 0.52233356 -855.92493
-62.950653 0.548805 -856.02606
-65.970284 -3.2577367 -854.48755
-63.796753 -3.6103811 -854.34796
-62.993637 -5.8849916 -853.64056
-62.414421 -1.8310863 -855.02435
-60.442211 -2.4345951 -855.05005
-174.89828 -61.576435 -1002.3796
-174.87946 -63.28183 -1004.3785
-175.86075 -63.19857 -1006.8995
-175.36147 -65.808487 -1007.9945
-176.93167 -65.893166 -1012.0467
-177.51999 -69.665169 -1014.5366
-179.83696 -67.689346 -1019.251
-173.78946 -67.959084 -1006.9037
-173.23488 -72.231857 -1009.1171
-174.186 -61.211037 -1000.1399
-218.16455 27.855936 -920.82117
-130.42912 -49.894264 -1033.068
-131.3502 -50.024353 -1031.1719
-26.725901 -10.975161 -893.24573
-36.359623 -30.632576 -854.64093
-34.712753 -32.285091 -855.50226
-60.598328 1.7835779 -856.953
-149.08907 -55.783035 -964.08514
-151.51694 -55.138687 -964.55444
-152.21764 -53.737759 -962.7326
-153.88477 -52.385807 -961.78467
-156.00819 -52.099426 -962.9624
-157.9249 -52.116905 -964.55505
-159.77211 -50.929508 -964.17175
-160.21565 -49.34613 -962.01495
-158.3898 -49.226955 -960.23486
-160.8604 -47.398754 -959.71167
-155.98573 -49.437351 -958.72919
-155.79565 -48.210094 -956.60236
-147.96463 18.191292 -930.3031
-130.62405 -87.852623 -1033.3569
-66.317627 -39.486778 -891.8299
-68.873093 -39.578255 -892.27936
-68.755859 -38.477448 -894.6911
-71.236595 -38.426395 -895.36206
-73.35685 -39.035271 -894.38501
-75.713547 -39.425819 -893.43475
-73.169548 -39.846123 -892.10785
-77.64682 -39.806938 -891.89832
-78.623978 -40.229408 -889.39032
-78.805122 8.7293129 -860.81445
-81.158905 9.2267437 -861.28613
-82.803749 7.862977 -860.19769
-81.827133 10.961977 -862.65717
-84.065262 11.698445 -862.87415
-85.332962 10.455739 -861.66296
-85.006546 8.7654505 -860.55359
-80.211998 7.5781355 -859.94757
-169.23737 -41.314186 -1012.2849
-215.44568 26.71048 -935.7356
-133.80017 4.0800691 -935.31342
-134.07487 2.4703662 -936.78607
-135.31313 1.4254751 -938.3479
-177.2953 3.7505131 -876.33704
-161.08997 -61.792107 -983.16284
-162.34145 -62.478214 -985.32867
-163.72047 -60.791138 -983.94446
-152.70775 -27.947701 -912.77777
-154.74883 -27.459764 -911.54926
-157.54762 -26.746073 -911.23236
-152.6972 -27.98798 -915.08533
-154.79956 -27.435591 -916.55981
-154.53535 -27.76548 -919.05609
-156.94881 -27.121418 -921.79596
-152.50946 -28.243366 -917.45721
-157.13026 -26.749893 -915.61279
-159.12657 -26.060661 -917.12891
-160.11411 -25.614237 -919.98071
-160.82445 -25.715853 -914.85193
-163.68867 -24.850582 -915.18964
-165.51811 -24.430475 -912.96136
-150.33083 -29.120941 -918.28632
-150.01863 -29.827139 -920.53143
-152.04254 -30.005896 -924.00873
-148.19659 -32.644119 -925.33118
-151.39864 -29.714312 -922.09369
-153.45496 -28.678083 -921.66876
-148.60272 -33.809723 -927.92761
-146.65163 -35.526085 -929.03894
-148.79491 -35.950127 -931.5343
-143.9893 -35.80125 -927.75287
-166.9256 -23.995825 -915.1864
-168.73326 -23.07205 -917.75708
-170.51245 -22.228359 -919.2323
-148.02046 -30.349485 -919.78998
-145.92813 -31.568562 -920.99872
-146.1257 -30.557652 -918.48572
-147.03024 -32.180115 -923.22797
-153.58392 -27.805798 -909.53943
-151.87189 -28.163986 -908.15161
-150.47658 -28.3957 -906.50916
-151.02612 -28.248022 -904.26007
-148.77823 -28.69216 -905.11713
-146.54506 -29.138168 -906.79474
-154.30862 -27.632704 -907.46478
-154.72902 -27.486401 -905.02484
-156.43413 -27.044216 -906.91425
-149.99484 -28.546402 -909.19562
-147.55093 -29.035793 -909.30743
-153.08983 -27.799641 -903.24719
-153.95265 -27.414221 -900.80902
-156.90234 -26.538507 -900.08875
-151.72737 -27.832783 -899.72839
-149.29042 -28.397303 -899.67462
-151.03452 -27.622309 -897.27295
-157.77293 -26.675795 -908.82111
-145.03915 -29.452017 -904.59692
-145.24928 -29.399698 -901.83368
-159.23297 -26.130917 -907.4682
-161.25594 -25.318281 -907.96631
-160.27377 -25.631205 -905.72607
-159.14886 -26.030563 -903.80829
-162.02666 -25.248373 -910.28949
-164.54639 -24.37145 -910.60651
-157.4556 -26.564453 -902.3783
-160.29559 -25.926453 -911.91882
-147.4184 -28.899006 -901.2843
-146.74698 -28.963797 -899.23596
-149.23747 -28.561306 -902.51782
-160.93716 -25.348175 -902.61139
-161.97307 -24.963581 -900.19769
-162.86769 -24.607435 -902.66461
-163.88321 -24.039497 -904.76733
-165.65431 -23.488333 -903.172
-168.20546 -22.633287 -903.80774
-167.25175 -23.265114 -901.25146
-171.02876 -21.756817 -904.36932
-173.75464 -21.053366 -906.31525
-173.41383 -21.534983 -908.78619
-177.78116 -20.734297 -909.6701
-170.9971 -22.61565 -910.61823
-162.77422 -24.581387 -906.55646
-164.88403 -23.725344 -907.45215
-166.98427 -22.876759 -907.0351
-168.97397 -22.439053 -908.08716
-171.77032 -23.008411 -913.60211
-169.30745 -22.142275 -905.88373
-146.14961 -28.853342 -897.11017
-143.90985 -29.339327 -896.65973
-142.32443 -29.911787 -898.16779
-140.06035 -30.293102 -897.20917
-142.60075 -30.001577 -900.67865
-149.88795 -27.338789 -894.935
-174.18933 -22.495264 -915.00031
-176.96509 -21.986757 -914.25739
-179.71051 -21.48468 -914.76569
-182.22438 -21.028296 -914.30969
-142.77016 -37.345192 -929.73669
-169.68192 -23.363194 -915.3783
-169.07253 -22.918337 -910.13452
-167.33786 -23.725349 -911.41797
-175.00897 -21.872894 -917.27551
-173.31979 -21.586136 -919.20026
-164.72354 -44.777962 -961.09857
-162.8531 -45.691006 -959.63611
-163.85651 -43.80035 -958.65192
-164.73581 -41.777576 -957.73633
-162.88513 -43.279736 -956.659
-160.7813 -44.255207 -955.24347
-159.93687 -46.107018 -956.90503
-166.30292 -43.252312 -961.99396
-166.63324 -41.227283 -960.55725
-167.74068 -41.167557 -962.77441
-168.79587 -39.16198 -963.63843
-168.4967 -41.549274 -964.83777
-166.90742 -39.244892 -959.36121
-151.57257 -36.971779 -935.67719
-150.47716 -38.649025 -937.09833
-150.20438 -40.023563 -938.98181
-152.35335 -35.283871 -934.14386
-153.77502 -33.117264 -932.95099
-150.20447 -36.34613 -933.43982
-155.64142 -32.826603 -935.13239
-155.66811 -34.631481 -937.34338
-157.17052 -34.679169 -939.40204
-158.65866 -32.591496 -939.45447
-152.64917 -32.522049 -930.5155
-150.5481 -33.819664 -930.00287
-224.41069 4.2890258 -922.20111
-224.03745 7.036902 -921.98114
-223.48788 8.6449356 -923.89075
-165.88112 -82.323486 -1034.7065
-167.30038 -80.176994 -1035.5767
-37.170025 -40.335388 -872.37036
-165.65692 -33.759544 -1001.0238
-167.29787 -35.194599 -1001.9748
-164.47237 -20.735977 -956.0694
-163.79086 -19.592487 -957.95483
-162.1931 -17.550858 -957.33832
-165.21465 -21.884375 -957.8219
-166.20595 -23.481932 -959.55481
-166.2485 -24.227011 -957.0675
-161.94272 -17.036785 -954.69739
-163.01672 -18.478035 -953.46112
-160.83232 -15.991991 -956.42468
-104.26091 -38.941875 -933.34644
-101.29816 -38.407928 -934.16119
-162.02223 -22.847654 -979.47321
-159.8026 -12.080002 -946.14764
-172.35918 -75.190475 -1009.8672
-174.47807 -73.420967 -1010.9852
-177.1125 -72.699471 -1014.2564
-173.22404 -77.774673 -1011.4647
-171.97882 -80.561096 -1011.6075
-175.70596 -79.183121 -1013.4005
-177.4498 -80.933655 -1014.8098
-178.81148 -84.510445 -1015.9713
-175.82658 -85.44249 -1013.8655
-173.26071 -84.706741 -1012.7487
-175.20059 -88.88166 -1013.9191
-176.61353 -91.70063 -1015.2724
-177.42816 -77.7547 -1014.8409
-177.75723 -75.055939 -1015.2662
-169.72964 -46.902779 -1026.335
-167.67833 -45.307159 -1026.0105
-111.5601 -15.246674 -859.38696
-150.10747 -65.010773 -1046.7009
-174.61008 -40.77792 -991.2818
-69.305183 16.744614 -897.87726
-67.492615 15.536804 -898.59021
-66.022354 13.942447 -899.99481
-64.688324 12.547215 -901.09076
-68.07869 14.320424 -901.02631
-69.158035 13.023849 -903.58447
-70.078079 14.649859 -901.9837
-71.517479 16.231411 -900.64941
-67.382965 11.494475 -904.3399
-69.635445 11.567792 -905.57532
-67.952721 10.17656 -906.04089
-67.095039 8.3133821 -907.23804
-64.613655 -15.167953 -852.66522
-202.72037 -12.513032 -901.31555
-161.83957 -72.157761 -1000.7545
-159.90727 -75.088394 -1003.2534
-161.84567 -76.92128 -1005.8979
-198.60786 29.555561 -939.44684
-197.20793 30.74876 -937.95007
-194.71544 30.598989 -936.98309
-37.672321 -0.50078773 -892.43042
-176.23219 -48.881821 -1044.2491
-175.68562 -45.875698 -992.14514
-127.74467 -52.044773 -1016.1461
-128.01891 -50.481758 -1013.66
-126.73471 -52.701572 -1013.899
-129.5938 -48.246574 -1013.2957
-131.22845 -46.314106 -1012.8535
-131.20442 -44.587761 -1010.3098
-133.80409 -42.481247 -1009.7748
-127.88158 -48.991478 -1011.1295
-127.75565 -47.20509 -1008.6063
-126.54839 -49.670723 -1008.8628
-125.69765 -52.210522 -1009.1854
-129.33496 -44.850346 -1008.1727
-128.75172 -43.632618 -1005.6166
-126.9828 -44.180351 -1003.4586
-130.68372 -41.888699 -1005.7009
-130.97287 -39.530701 -1002.5979
-133.22545 -45.759991 -1014.3556
-133.00676 -44.322792 -1011.9059
-135.45033 -45.063274 -1015.3704
-136.91788 -45.549095 -1017.5334
-128.95584 -40.010086 -1000.9572
-127.36383 -41.962029 -1001.3784
-130.91121 -38.132351 -1000.3937
-132.39246 -36.230568 -998.76855
-131.27055 -35.264862 -996.26331
-128.96452 -36.112923 -995.17291
-133.02869 -41.220303 -1007.1793
-135.20268 -40.307419 -1007.5481
-137.50319 -38.555523 -1006.4711
-73.55761 -40.333099 -889.99786
-127.55052 -4.1667247 -941.86237
-147.9682 -63.807774 -1047.5759
-147.84138 -65.976166 -1046.4049
-114.04082 -57.849689 -1028.3701
-114.27042 -56.532467 -1030.5204
-116.44817 -55.247238 -1031.3503
-118.87737 -55.000587 -1029.8832
-120.47249 -55.562843 -1026.9791
-118.33152 -57.116409 -1026.067
-179.11609 -21.264143 -912.24066
-177.01022 -21.548946 -911.63251
-175.38026 -21.297369 -909.86804
-176.17416 -20.56362 -907.60956
-175.84509 -20.617735 -905.00574
-177.53651 -20.56612 -903.31091
-179.78838 -20.027763 -904.17535
-181.52972 -20.059319 -902.82159
-180.68707 -19.659216 -906.55658
-182.88617 -19.394739 -908.01489
-184.99005 -19.600487 -910.38202
-183.89433 -19.550787 -903.26709
-184.67102 -19.0693 -905.50043
-185.29362 -19.203318 -901.30957
-179.07925 -20.013929 -907.95581
-180.32701 -20.238749 -909.78278
-184.57747 -18.825827 -899.13129
-181.98816 -19.504089 -899.04907
-180.97554 -18.889412 -897.01538
-182.05222 -17.707949 -895.40436
-184.1983 -17.019991 -895.4469
-186.89877 -14.625181 -893.35132
-181.08273 -17.036013 -893.60529
-179.05373 -17.184984 -892.48474
-177.47797 -16.601519 -890.38715
-181.75615 -15.704031 -891.84387
-184.74948 -14.445999 -891.88116
-174.2083 -17.830599 -890.31787
-182.45827 -14.155365 -890.1037
-180.89978 -13.234092 -888.05566
-181.44698 -11.175018 -886.40692
-183.93231 -9.8306742 -886.65851
-179.40109 -10.472242 -884.8374
-176.47656 -11.878885 -884.50464
-186.09596 -10.895889 -888.6532
-188.26505 -8.7800608 -887.94855
-179.57202 -7.7206535 -883.29767
-178.60831 -5.5740471 -881.91327
-178.8091 -19.303717 -896.52673
-186.75745 -12.686915 -890.83038
-188.78926 -12.860747 -892.10736
-185.31096 -15.790407 -894.16528
-187.29927 -16.264603 -896.02032
-189.69728 -16.565948 -897.87433
-192.34531 -15.103893 -897.10425
-187.35651 -18.575752 -901.34375
-189.1022 -17.702938 -899.97241
-185.38634 -17.558208 -897.05438
-180.70677 -20.17351 -900.62854
-171.57997 -17.488157 -888.24438
-168.95454 -18.398088 -888.33472
-178.56847 -14.593756 -888.21045
-176.62405 -14.041957 -886.45862
-174.44682 -13.548443 -884.97296
-171.93478 -14.648972 -884.91052
-168.55711 -19.910614 -890.81116
-170.08023 -20.672359 -893.26929
-166.26854 -19.576534 -888.80676
-163.43042 -20.795675 -889.32874
-163.73396 -19.399435 -887.04993
-164.12215 -17.691221 -884.83838
-166.71567 -16.31374 -884.45349
-166.9839 -14.202642 -882.53864
-168.57018 -16.968092 -886.05017
-165.59091 -12.671579 -880.86853
-163.1813 -13.138647 -880.22382
-160.93739 -14.810083 -880.46759
-158.34477 -14.75543 -879.23981
-155.9444 -16.496958 -879.4856
-157.27057 -12.320711 -877.36285
-158.92613 -10.00578 -876.85516
-154.55443 -12.687678 -876.4613
-151.69936 -14.30357 -876.25244
-151.24524 -16.464561 -877.44006
-161.87122 -16.744469 -882.64948
-159.88867 -18.226292 -883.30817
-158.08205 -7.925467 -875.32404
-159.61533 -5.5303264 -874.2536
-163.91306 -4.0499425 -875.17102
-158.95514 -3.3817222 -872.40448
-155.08116 -3.3463094 -870.63062
-160.46436 -0.47516412 -871.60797
-162.2807 2.3336132 -871.69501
-163.92751 5.1726713 -872.43579
-162.03539 7.9918356 -873.14368
-159.61865 2.5168846 -870.70917
-158.18787 5.1143155 -870.32495
-159.48427 7.5929761 -871.85486
-161.6642 -2.8328257 -873.36749
-155.48904 -8.082325 -874.23425
-154.33243 -6.4425006 -872.43933
-161.55527 -9.992795 -877.87335
-163.61253 -8.2395725 -877.77582
-163.52823 10.112012 -874.94653
-165.43298 11.719609 -876.25177
-165.4861 13.979888 -877.76904
-167.82445 -21.441494 -893.36871
-166.63931 -22.831486 -895.79144
-166.569 6.4285412 -873.47601
-168.74892 7.5226879 -874.36414
-156.80693 2.4307072 -869.58167
-153.9818 2.2348514 -868.6181
-152.09285 4.168324 -868.06165
-151.17854 7.3477182 -868.27203
-154.349 8.0465689 -869.36224
-150.43921 2.0631344 -867.58148
-147.67505 2.2529445 -867.16937
-155.14944 -0.4645558 -869.45496
-166.71449 -10.36905 -879.99426
-169.03867 -9.1160851 -880.21014
-169.77608 -6.617383 -879.28918
-172.36523 -5.5869308 -879.6806
-171.01346 -10.683098 -881.7218
-173.62665 -9.5638018 -882.0285
-170.0992 -13.061791 -882.8952
-174.11475 -7.1257801 -881.01685
-170.63542 -4.0991001 -878.11713
-168.21033 -5.1166525 -877.77728
-165.72792 -5.9429398 -877.30444
-153.05486 -17.523769 -879.01306
-153.11627 -2.5480547 -869.36414
-150.40929 -2.5059466 -868.26288
-184.60533 -12.916548 -889.89966
-176.13454 -15.931663 -888.47485
-177.67291 -18.612814 -894.25708
-166.33902 -3.5709953 -875.86285
-167.12979 -0.64769381 -874.16132
-164.97533 -1.9936582 -874.1424
-161.12996 -24.904955 -897.58319
-159.39497 -25.655832 -899.10938
-72.813782 20.32089 -882.5993
-75.410851 20.674479 -880.68024
-74.397484 19.594938 -877.11481
-75.360107 21.121616 -883.42627
-77.786469 20.908014 -878.91003
-150.50705 -18.466349 -878.716
-116.27089 -11.086385 -942.89453
-140.1393 -11.124007 -869.41949
-181.82155 -71.220062 -1037.6648
-185.47755 -70.4263 -1036.6855
-185.86378 -73.424973 -1035.6907
-187.93852 -74.686508 -1033.6414
-189.69685 -71.464172 -1030.3962
-187.84209 -68.978531 -1036.2357
-189.94208 -66.505173 -1032.0034
-186.0014 -67.055077 -1037.1165
-186.35828 -64.303146 -1037.0353
-186.56635 -61.416138 -1037.2769
-188.10112 -63.127197 -1035.4772
-189.24564 -64.347694 -1033.1588
-188.097 -62.324638 -1032.6665
-186.5618 -60.484959 -1031.7881
-185.91187 -58.605526 -1033.1489
-186.02332 -56.657036 -1035.3667
-185.37393 -54.074474 -1037.4736
-186.72906 -62.132107 -1030.0846
-185.07425 -62.464619 -1027.7395
-186.84758 -63.876667 -1028.4849
-188.4395 -65.769676 -1028.8505
-184.69878 -58.565731 -1031.344
-182.88928 -56.470871 -1031.0614
-183.23083 -58.725861 -1029.4478
-181.9734 -59.272495 -1027.3264
-180.29315 -57.882599 -1026.6958
-178.43462 -56.110462 -1026.1295
-179.63452 -56.022213 -1028.0743
-180.99719 -60.119682 -1025.1421
-181.21466 -62.271862 -1023.3289
-179.7686 -60.274952 -1022.7154
-180.30986 -65.181595 -1020.5024
-178.41429 -58.29353 -1021.9807
-187.07431 -67.21785 -1026.8152
-185.15012 -67.663765 -1025.0035
-183.99542 -65.388474 -1024.5912
-187.24648 -69.671829 -1026.6301
-187.18021 -72.404152 -1026.8605
-185.37044 -73.733688 -1025.2322
-188.28473 -73.590736 -1028.8562
-187.44594 -76.836311 -1029.3817
-185.11603 -76.263405 -1025.6073
-183.79257 -69.73085 -1023.5301
-181.9698 -69.921204 -1021.5975
-178.80486 -63.618134 -1018.0462
-178.28162 -61.052151 -1017.3243
-184.1245 -72.073799 -1023.818
-182.32076 -72.244797 -1021.8602
-181.49022 -74.848503 -1020.7147
-180.59789 -72.097 -1019.731
-184.01331 -65.939949 -1037.8774
-181.75131 -66.591957 -1038.9524
-181.43091 -68.875984 -1038.5084
-183.63344 -60.650345 -1027.9714
-186.88753 -58.585819 -1035.5265
-180.91856 -55.740395 -1029.913
-179.36983 -54.116154 -1030.3986
-179.43585 -52.933456 -1032.3411
-181.57321 -53.452805 -1033.647
-183.21271 -55.057907 -1033.2316
-181.15395 -52.189137 -1035.557
-179.28065 -51.127125 -1036.141
-176.99413 -50.315067 -1035.8608
-180.21831 -50.917252 -1037.9209
-180.38832 -50.40683 -1040.4287
-181.52884 -51.486347 -1044.0486
-178.17178 -49.833435 -1039.9048
-176.32187 -48.958664 -1041.6381
-175.8839 -49.219376 -1038.9009
-182.50609 -51.354366 -1041.7069
-184.52177 -52.543182 -1040.0929
-185.83792 -56.809708 -1041.5818
-183.32542 -58.335217 -1043.0043
-180.00743 -59.436203 -1043.9827
-182.85408 -52.295277 -1037.2612
-177.56851 -51.385456 -1033.5895
-176.989 -60.058784 -1044.9486
-175.07246 -58.183598 -1046.5284
-181.34517 -57.070621 -1044.8721
-184.5995 -55.01115 -1035.0803
-186.17598 -77.404503 -1027.3949
-185.0665 -79.093628 -1026.3295
-184.8 -81.549194 -1027.3684
-184.0397 -80.749405 -1024.9949
-182.86131 -80.461472 -1022.7147
-183.40431 -82.556587 -1023.8011
-182.9263 -84.753441 -1022.6728
-182.34097 -86.915657 -1021.0228
-183.54118 -84.851868 -1024.9777
-183.83548 -84.86869 -1027.7197
-183.41824 -87.143654 -1026.1473
-183.07309 -89.995514 -1025.4028
-181.32466 -89.157944 -1028.0597
-181.72171 -80.55278 -1020.4763
-180.4964 -79.268715 -1018.583
-179.08702 -79.735619 -1016.5026
-180.43913 -76.782631 -1018.8755
-179.3181 -75.045265 -1017.4624
-184.95715 -81.401115 -1030.3018
-185.63641 -79.387909 -1031.8848
-181.82368 -84.703316 -1030.6316
-179.63396 -86.072014 -1030.7012
-179.37636 -88.154831 -1029.6332
-176.9483 -87.369797 -1030.4213
-181.41663 -82.716263 -1019.5643
-180.47659 -84.052437 -1017.9412
-182.00217 -84.690376 -1020.4545
-184.71027 -61.17741 -1039.1031
-182.73076 -62.347393 -1039.8274
-180.80186 -62.96714 -1040.9753
-179.60898 -61.584156 -1042.6768
-178.61288 -64.097733 -1041.9122
-175.83286 -64.599983 -1042.7537
-172.85822 -65.247025 -1042.8564
-177.98901 -66.2052 -1041.1913
-179.62079 -67.389603 -1039.88
-184.52083 -59.455822 -1040.8461
-175.35262 -62.594048 -1044.0249
-182.39229 -64.530655 -1039.1952
-190.16255 -70.142105 -1033.3385
-177.69891 -57.385921 -1019.8964
-178.47179 -59.688171 -1019.6735
-177.17622 -55.670189 -1017.7561
-176.72777 -55.082832 -1019.9936
-175.8335 -53.304832 -1020.3115
-221.23891 20.566397 -917.50079
-220.48952 21.987492 -920.45673
-114.57172 23.435032 -912.39349
-14.255454 -22.181425 -888.67029
-6.2703171 -28.333378 -857.16418
-4.6151509 -27.238737 -858.86591
-3.4431071 -22.652699 -859.34729
-44.507637 -15.498087 -852.04803
-42.330593 -14.702552 -852.02356
-43.436279 -12.847971 -852.65326
-45.267197 -11.418511 -853.17529
-42.177666 -11.069525 -853.21985
-36.49268 -10.822922 -897.77808
-141.72549 -90.27758 -1009.0042
-138.30304 -91.446075 -1009.046
-177.39906 -60.946857 -1010.8691
-177.43858 -63.1912 -1012.6178
-178.01761 -62.562695 -1015.3145
-63.360111 -21.749273 -854.2215
-32.787182 -39.857475 -880.47351
-35.265347 -39.881199 -880.88025
-34.003532 -38.731968 -882.7323
-37.621639 -39.676582 -881.51117
-41.518684 -39.177563 -882.8335
-39.109383 -38.609207 -883.72546
-37.209484 -37.413338 -885.39807
-38.281719 -36.237698 -887.42615
-36.903362 -40.352779 -879.20074
-39.865925 -39.703911 -881.48553
-42.010483 -39.978092 -880.38293
-43.832485 -39.356956 -882.2309
-40.90551 -36.206722 -888.12152
-42.693707 -37.157188 -886.80908
-42.004799 -35.071537 -890.02161
-42.332413 -38.318924 -884.685
-60.387466 -40.917282 -879.84729
-79.867233 -4.8224912 -854.66339
-184.39423 -63.677425 -1025.9641
-153.59926 -29.799232 -926.14203
-158.0105 -14.810863 -962.51996
-202.19879 -15.22003 -920.66608
-160.87328 -64.298462 -987.0354
-158.56488 -65.119888 -986.60883
-157.81757 -64.165787 -984.46619
-162.14127 -48.343884 -962.47699
-80.406723 -40.46386 -878.7265
-78.765312 -40.351757 -876.84119
-76.529755 -40.533199 -876.90759
-74.065216 -40.680912 -876.8905
-71.642052 -40.841629 -877.5144
-90.898293 -103.43414 -1031.8123
-87.873734 -104.65992 -1031.0631
-89.51622 -106.85197 -1029.6813
-93.786804 -102.62434 -1031.6874
-88.158165 -108.18254 -1026.6451
-87.406792 -106.06041 -1024.3939
-194.91254 39.163334 -905.20435
-151.69588 25.201921 -878.78607
-163.41913 -29.18095 -994.14581
-0.87439293 -26.669806 -874.10321
0.11606283 -25.032324 -872.04645
-0.41470551 -24.171497 -876.07593
-0.27568251 -20.838316 -876.72131
-2.1469474 -18.59845 -880.2533
-0.071091205 -18.434866 -875.30084
-0.34172279 -15.273394 -872.76654
-0.95818371 -12.826683 -870.50909
-1.1557212 -14.280381 -867.38593
-2.4394743 -10.408449 -868.85754
-4.3120513 -8.9771805 -866.5202
-4.7145085 -9.6326113 -863.75616
0.14388578 -19.050444 -871.73242
0.52409244 -19.434576 -867.3764
-2.0011966 -13.957456 -864.28046
-0.48456931 -16.878878 -866.9624
-3.2894609 -12.289391 -862.56287
-4.9005065 -10.950902 -861.27069
0.47850811 -21.878229 -871.04773
-2.5690107 -15.531615 -861.76874
-2.6083963 -18.740171 -860.80444
-3.5785038 -16.615404 -859.58234
-0.6886906 -20.11817 -862.65265
1.0598663 -20.862089 -864.94446
2.3977988 -23.451424 -866.10193
1.1170751 -27.415133 -863.89185
2.0584772 -26.503304 -867.03943
0.68508303 -26.614679 -869.35443
-0.89265108 -25.964363 -861.71075
-95.038834 -26.763847 -861.64105
-133.11401 -30.287268 -889.39978
-162.87309 -31.280821 -998.43335
-12.498333 -22.062222 -851.6427
-11.110923 -19.879946 -852.39142
-8.4389496 -20.062359 -853.72345
-7.0372367 -22.822132 -854.82178
-13.365448 -19.411413 -851.78735
-5.0941863 -22.45495 -857.41992
-7.6915851 -25.50411 -854.51404
-14.192082 -17.306009 -852.11517
-12.910039 -15.125876 -853.21783
-12.333505 -12.836359 -854.57031
-10.696692 -15.315331 -853.89117
-14.292515 -11.3291 -855.01068
-16.591593 -12.053721 -853.96259
-15.668587 -15.343738 -852.5307
-150.29616 -48.369259 -1055.9746
-133.98389 -18.516054 -872.05438
-102.18755 -75.65274 -1020.9135
-59.564026 -6.1665049 -854.17603
-168.76335 -37.515694 -962.52258
-167.89732 -37.377869 -960.23865
-158.20337 -39.782494 -946.67822
-130.67067 -8.6558218 -951.6969
-132.41867 -7.4480567 -950.86523
-129.05556 -9.9174423 -952.6366
-128.64218 -11.090012 -954.35596
-135.49252 -46.819038 -1018.6745
-133.08305 -48.014198 -1018.3237
-134.80125 -47.915295 -1020.4725
-144.42587 11.617116 -933.94757
-146.68465 11.535818 -934.50311
-148.62489 12.908922 -934.18597
-148.72816 14.870141 -932.83246
-146.81859 15.758653 -931.88177
-62.970768 11.434951 -901.35181
-60.556507 11.200635 -899.69263
-146.1367 -7.2687497 -952.84534
-25.489809 -22.819265 -850.9115
-124.98235 -66.04483 -1007.9338
-8.2946701 -37.394379 -864.17316
-190.82246 -11.15971 -891.33179
-10.791786 -39.129417 -867.63373
-140.67992 -38.091278 -930.05988
-139.3867 -39.298611 -931.51038
-140.48125 -40.127857 -933.414
-141.83018 -40.932072 -935.44659
-143.09505 -39.679901 -933.90137
-144.10918 -38.321396 -932.06842
-145.90512 -38.590271 -933.56165
-147.42235 -39.116562 -935.44971
-143.76419 -41.166466 -936.80878
-147.79599 -37.446129 -933.04877
-146.19514 -40.531704 -937.07935
-116.54482 29.302189 -881.6192
-119.19411 30.496712 -883.56622
-113.87988 29.851715 -883.0033
-154.83911 -83.448555 -1008.1185
-152.2002 -83.946045 -1007.847
-153.28511 -81.695572 -1006.7082
-154.39017 -79.463806 -1005.3146
-154.8795 -77.413498 -1003.4865
-156.86348 -79.087563 -1005.8334
-158.58601 -80.812477 -1007.6078
-159.34032 -78.397263 -1006.1508
-156.8172 -75.60865 -1002.2747
-155.0381 -74.664017 -1000.1446
-156.0106 -73.193787 -998.55231
-158.25581 -72.211372 -998.45441
-160.01221 -72.355751 -999.81683
-155.76871 -72.020088 -996.6001
-156.03145 -70.807648 -994.73914
-155.57516 -69.827621 -992.71478
-153.29903 -69.791512 -991.16907
-156.19011 -68.525185 -990.74469
-158.09486 -69.863228 -994.4978
-159.15617 -74.100998 -1001.6494
-159.87401 -70.73008 -997.23572
-200.77725 10.291351 -886.04395
-197.82201 10.254984 -884.27393
-197.47357 13.909967 -883.69843
-194.99295 15.754729 -882.58282
-198.70671 16.511877 -884.65698
-195.25319 19.275425 -883.56885
-192.49875 13.91036 -881.25238
-203.25072 11.463107 -887.26721
-190.43735 16.596308 -881.10431
-186.50305 15.970305 -879.83911
-184.45561 18.5907 -880.33606
-195.57367 22.130125 -884.77734
-195.31989 24.658213 -885.94458
-192.83363 26.083942 -885.82306
-190.5183 25.241848 -884.4978
-197.70877 23.313618 -886.3656
-190.73909 22.532345 -883.18219
-192.99641 20.976444 -883.32947
-188.62337 21.364676 -882.07642
-190.40491 19.501625 -881.93066
-186.13234 21.014833 -881.29846
-185.71866 23.335789 -882.15411
-183.41827 24.479414 -882.50098
-186.20384 25.335777 -883.28369
-186.50755 27.59091 -884.79761
-186.87558 29.467543 -886.36285
-187.04074 31.422132 -888.18347
-184.82938 32.546249 -888.67773
-184.44557 28.866415 -885.23462
-182.08792 30.198214 -886.12054
-179.5827 31.181229 -887.18518
-182.11275 28.133572 -884.61255
-179.76474 26.667313 -884.23071
-177.76299 25.078074 -884.39868
-189.26447 29.685688 -887.27338
-187.58685 33.051689 -889.98907
-190.22536 33.075829 -890.82031
-192.66397 31.364464 -889.9762
-192.45245 33.447544 -892.08514
-195.25381 30.032082 -889.8161
-194.65773 34.013672 -893.93768
-197.15395 32.590664 -893.64441
-187.9184 34.628269 -891.888
-188.46088 36.119656 -893.98541
-190.75746 36.348392 -895.46265
-187.74638 37.452858 -896.06042
-187.05409 38.416393 -898.52686
-188.90858 38.49012 -900.67218
-189.17329 39.015968 -903.83179
-185.80713 38.820072 -900.94916
-183.30531 38.982231 -901.86975
-196.17104 34.690113 -895.96887
-195.23979 36.211018 -898.13409
-192.3013 37.051617 -897.94885
-199.03284 33.122707 -895.62006
-200.84293 33.777672 -897.72516
-197.42014 30.642258 -891.56097
-198.09944 28.282785 -889.78351
-191.20235 27.84606 -886.44885
-185.40898 38.070782 -896.51123
-183.40001 37.548977 -894.83881
-185.84406 35.623989 -892.57959
-183.59715 35.08947 -891.40735
-181.50414 34.586224 -890.43738
-179.22456 35.72752 -891.65204
-176.50452 35.992207 -892.03735
-179.48106 33.862408 -889.49408
-177.84543 32.457035 -888.55231
-175.13026 32.349632 -889.18945
-175.04065 37.229603 -893.65814
-172.11603 37.391411 -894.2113
-170.2731 35.869228 -892.46875
-167.50681 36.88456 -893.65887
-164.81122 34.748547 -891.01941
-160.17102 36.312801 -892.60254
-171.51233 33.820171 -890.79999
-169.80678 31.823008 -889.50287
-166.94106 32.464699 -889.61823
-163.82307 29.657217 -887.36487
-174.35799 34.196339 -890.61682
-183.52496 36.393433 -893.07422
-183.38072 33.737339 -889.67987
-157.55386 36.661907 -896.62488
-176.27454 38.528671 -896.05475
-183.19614 38.566856 -896.99768
-182.41368 39.050762 -899.20221
-180.03299 39.036194 -898.03333
-167.11406 38.028027 -896.52905
-164.75517 37.37484 -894.85968
-159.55785 36.479012 -900.57379
-181.11134 22.60619 -882.14026
-181.58862 19.768496 -881.05933
-199.77687 35.522926 -899.52753
-197.44048 36.168659 -899.34503
-197.88145 37.170444 -901.4707
-196.17387 38.203888 -903.06665
-194.03426 38.174294 -902.22235
-192.96248 38.93404 -903.9906
-192.39018 39.630646 -906.30011
-190.09891 39.826069 -907.40906
-188.65041 40.020451 -909.57074
-186.23148 39.494259 -908.86908
-184.15291 39.327522 -910.37
-184.48653 39.477306 -912.90442
-181.72972 38.967365 -909.5838
-179.69901 38.98333 -911.19519
-181.27354 38.793262 -907.20605
-185.63383 39.125164 -906.57397
-183.45697 38.821796 -905.19489
-179.98886 39.062687 -913.68323
-177.24992 38.809845 -910.61005
-178.6898 38.648148 -906.29071
-178.69604 38.754593 -904.05029
-179.21187 39.048672 -901.95667
-177.88921 39.131851 -900.08209
-175.43266 38.984039 -900.42053
-181.30048 38.91399 -902.84479
-172.88902 38.700958 -900.81982
-193.58165 37.509312 -900.08362
-182.25943 39.214024 -914.36981
-182.53568 39.088036 -916.79626
-186.6741 39.84922 -913.62219
-176.55261 38.608524 -908.28436
-174.231 38.383926 -907.49323
-172.63858 38.32988 -909.30573
-172.86768 38.421196 -911.59393
-170.38747 38.073711 -909.02551
-168.4615 37.873806 -910.19629
-168.74704 37.797146 -912.77539
-166.91068 37.283726 -914.62268
-169.54044 37.914635 -907.10834
-170.74573 38.028549 -905.28986
-167.84619 37.689651 -905.68304
-166.3289 37.485401 -903.75671
-165.46837 37.32119 -906.47827
-173.2451 38.264606 -905.40222
-171.16129 38.194363 -903.04639
-175.16304 38.688244 -912.26807
-176.05659 38.715214 -914.47888
-178.14214 38.857342 -915.49103
-174.58105 38.354897 -916.0993
-172.24387 37.957169 -915.88672
-174.30983 37.899277 -918.20245
-173.22971 37.143562 -919.99823
-170.88344 36.642345 -919.70636
-168.75533 35.742153 -920.59955
-170.0045 37.088863 -917.63678
-173.12468 36.36953 -922.04492
-175.20554 36.329445 -923.41193
-176.04834 37.887527 -919.65326
-177.3689 37.4398 -921.88245
-178.27484 38.442089 -918.81287
-179.52599 37.294117 -923.30469
-182.01347 37.89743 -922.66547
-180.01244 36.415047 -925.66736
-180.61772 34.775925 -929.12921
-180.5531 32.073128 -932.01935
-181.40819 28.745365 -934.03717
-178.62108 25.836138 -935.31525
-177.94302 35.276577 -927.06287
-166.3407 35.42643 -919.98883
-165.58949 36.286476 -917.53046
-180.54398 38.741478 -918.51227
-167.96516 38.005642 -901.65002
-164.73611 37.416328 -901.80524
-161.94298 36.777302 -902.23297
-163.5457 37.46035 -899.60083
-171.96806 35.340034 -923.54059
-169.83437 34.828773 -923.20471
-171.70003 34.241928 -925.42731
-168.18973 33.957294 -923.84808
-166.08977 33.398872 -923.63251
-163.08437 32.467197 -923.69604
-164.61705 34.004696 -921.88098
-167.79422 32.762276 -925.6781
-167.01248 31.414177 -927.44604
-169.78133 32.438732 -927.42139
-162.14505 33.701012 -921.27008
-159.87575 33.964436 -919.57831
-157.60698 32.596703 -920.63635
-155.18327 32.956429 -918.68445
-157.68626 31.205868 -922.98206
-171.33989 38.139614 -913.38391
-163.16656 35.838234 -917.49231
-155.51642 29.984671 -923.72522
-175.61011 34.753342 -926.74799
-161.86014 36.294632 -915.27429
-162.94844 36.928539 -912.86029
-166.16161 37.534111 -909.45135
-164.46205 37.268024 -910.77979
-162.19806 36.912743 -910.38409
