# .PCD v0.7 - Point Cloud Data file format
VERSION 0.7
FIELDS x y z
SIZE 4 4 4
TYPE F F F
COUNT 1 1 1
WIDTH 1558
HEIGHT 1
VIEWPOINT 0 0 0 1 0 0 0
POINTS 1558
DATA ascii
79.130005 177.18953 -913.84155
60.428062 174.27808 -922.96289
57.696678 174.44017 -927.85846
57.579948 172.9516 -924.33984
58.82114 167.89365 -915.08655
113.22471 168.72147 -893.59528
110.15152 168.60014 -893.62341
109.09511 171.17107 -894.99292
132.4261 145.63185 -896.73816
131.08105 143.22878 -899.92993
130.4576 164.90695 -887.66425
130.67627 162.10255 -887.8847
132.82439 160.84578 -887.51697
132.89542 158.46262 -887.92657
130.75237 157.04677 -888.80658
135.04221 161.93834 -886.99567
135.05168 164.66539 -886.85785
132.91312 165.97644 -887.08466
128.52586 160.4809 -888.55371
93.008873 149.59976 -896.03302
56.159569 147.05702 -907.06195
80.560219 126.6375 -907.54712
84.317497 126.04123 -908.03009
87.966553 125.56122 -908.74457
88.927086 123.00513 -911.94202
85.964386 121.34695 -913.8819
81.045769 121.70501 -912.71844
85.352295 119.51902 -917.75128
83.017532 118.26631 -921.43768
78.265671 117.90111 -921.06366
91.610855 122.03851 -913.98236
81.363007 123.74474 -910.32758
42.620708 151.57822 -916.62213
61.431957 177.07213 -930.18903
118.30599 171.03557 -893.36761
118.55614 173.20222 -894.44067
120.71139 174.87708 -894.46143
122.81283 175.68442 -893.89337
116.35173 172.18123 -894.7749
114.52301 173.41431 -895.97687
115.16328 175.76392 -897.53271
114.07278 171.12965 -894.65234
118.09243 176.72972 -897.30493
119.73183 179.00972 -898.38995
112.60266 174.49541 -896.87067
110.33195 175.24702 -897.52429
107.68758 177.45212 -899.71222
104.26945 175.22359 -899.09558
114.54178 178.00444 -899.61127
114.4881 179.97269 -901.90558
119.63297 180.81419 -900.73529
117.59361 181.1604 -902.70624
112.14655 178.56128 -900.3703
109.48476 179.03719 -900.96075
107.95183 180.54247 -903.10162
111.66766 170.43024 -894.49908
110.22884 177.26144 -899.1579
122.18304 182.27773 -901.11212
124.67442 182.54024 -899.5675
126.13729 181.66602 -897.20996
129.96603 182.55927 -896.0271
132.05737 184.8531 -898.99652
132.12923 180.34337 -893.0509
134.80795 178.5824 -890.95367
137.7683 179.38144 -890.32037
141.04655 180.37421 -889.8327
145.2962 182.28261 -889.77393
145.95294 185.01819 -892.18054
143.86989 186.35966 -895.3255
139.38991 185.31041 -895.25769
148.46817 186.69977 -893.86847
150.23041 188.26527 -896.62244
148.20459 189.20927 -900.42383
153.01453 189.4995 -899.04688
151.41071 189.80608 -903.14789
156.97878 189.62103 -898.14105
152.36121 186.99989 -892.75916
153.67537 184.51793 -888.95441
155.68089 187.32922 -892.25665
157.42313 182.45837 -886.66315
159.12289 188.08467 -893.17157
165.01913 186.54384 -893.76062
162.49942 186.20229 -891.25928
160.78531 183.73012 -888.01776
161.15421 178.71913 -884.75995
138.63086 182.48888 -892.00604
137.12402 177.0824 -889.06744
133.58965 183.73993 -895.5271
154.15706 189.60347 -905.80933
84.299385 150.18575 -898.01947
93.097961 164.96017 -897.51208
63.91288 175.21434 -921.62494
65.508163 176.61974 -923.43341
65.217484 177.41882 -926.15381
67.360329 178.64279 -928.15186
69.083305 179.4989 -929.94678
68.438972 179.71375 -934.51666
73.140015 180.88226 -932.37335
76.890846 181.72629 -934.86304
76.284729 180.83505 -940.28735
73.852921 178.62024 -945.09424
67.707321 179.32021 -939.0791
63.103249 177.81718 -941.14093
71.751991 179.79694 -941.10193
114.53679 157.4808 -891.61499
148.15544 171.27586 -884.18005
153.29358 171.80554 -883.39471
97.488289 173.08469 -900.48657
148.1554 182.12439 -888.6582
149.90025 180.26212 -886.71204
151.11867 178.13274 -885.05615
155.39934 178.22157 -884.26544
152.82852 176.19814 -883.95264
148.37025 177.70981 -885.63678
147.28093 174.92621 -884.69482
150.76706 182.68065 -888.12305
142.96741 179.08827 -888.37427
166.56691 176.75917 -887.26691
70.885124 127.37345 -910.16174
73.140297 125.98752 -909.88324
75.280052 122.66177 -912.04584
70.585106 165.82802 -906.23438
71.522339 163.63313 -904.89355
70.463295 161.26483 -904.78882
67.828751 160.95224 -906.28168
66.229393 162.67206 -907.31427
63.801521 161.35757 -907.89716
111.30028 172.91194 -948.23077
47.017647 151.80927 -915.90405
87.366936 134.19211 -902.01569
88.941895 136.26093 -901.04425
92.116608 136.21149 -901.01807
93.484459 134.27747 -902.22113
105.59682 167.06015 -893.81018
108.42468 166.10831 -892.89819
104.68568 171.33885 -896.30286
123.61176 135.92639 -936.79407
122.26694 133.57555 -933.8078
119.74466 131.85506 -933.92249
116.72066 129.12648 -931.49207
118.88066 129.4724 -927.98608
119.43786 129.06529 -922.97357
114.98081 127.21326 -921.14972
122.21334 131.40852 -927.40125
125.73275 133.50838 -926.51379
121.90852 130.40607 -919.69409
124.02833 133.44516 -930.05396
98.955681 123.98279 -914.28424
150.18129 153.65309 -924.18134
124.64098 168.33926 -944.77344
129.29062 168.90109 -888.00244
131.18517 170.63066 -887.71918
131.13225 173.26845 -888.89209
132.97348 168.88313 -886.97418
135.17357 169.86772 -886.50836
135.79057 172.10449 -886.73975
138.0379 173.17256 -886.46655
138.84215 175.7121 -887.59021
139.59486 171.50017 -885.66467
141.73718 171.81683 -885.25104
142.56046 174.05217 -885.54187
141.21799 175.67091 -886.711
143.66197 170.2962 -884.9079
145.96477 170.40254 -884.54626
143.42062 167.9413 -885.19177
144.54388 165.87312 -885.15686
144.15637 163.02647 -885.46185
141.9957 162.02847 -885.90033
147.13737 165.99713 -884.70856
149.75896 165.35327 -884.45349
150.99487 163.06732 -884.96216
148.39745 159.30809 -886.92163
152.56958 165.57394 -884.15948
152.51569 160.8839 -886.16296
157.34367 160.33003 -886.82184
153.61456 167.93701 -883.68134
155.31798 165.45067 -884.10083
156.7148 163.17923 -885.0498
157.94774 165.82198 -884.02399
162.32219 167.83723 -883.69238
159.52327 168.49776 -883.35944
156.69398 171.55891 -883.0802
160.35596 172.34258 -883.02661
161.99586 176.0636 -883.97351
139.42461 169.24367 -885.7453
133.92361 173.49829 -887.9472
134.96555 175.41917 -888.78729
134.66228 176.99483 -890.00916
132.31485 177.78461 -891.41388
137.1937 168.28685 -886.17853
136.74734 166.22002 -886.44836
141.10028 167.33624 -885.68878
148.19826 167.93579 -884.38269
138.1102 164.78918 -886.3609
139.60138 162.7574 -886.19397
137.57089 160.75816 -886.64618
140.38187 164.92332 -885.97278
146.43625 161.62349 -885.63025
144.70555 174.65529 -885.21765
146.05037 176.68147 -885.78033
145.11601 178.28336 -887.07635
130.84372 175.92368 -890.74255
129.27899 177.28384 -892.21857
146.22879 159.61861 -886.6405
147.40285 156.76512 -888.67816
143.6577 157.8671 -887.5238
151.5141 156.04494 -889.40283
154.49368 155.74365 -889.93811
149.38441 169.68083 -884.07672
150.81865 171.5938 -883.74298
151.96445 169.70204 -883.68463
151.71593 173.86493 -883.6944
149.33566 173.4398 -884.04767
154.74608 159.71739 -887.02783
156.34544 158.27319 -888.19354
158.80963 158.46542 -888.50714
160.19652 160.74358 -886.99988
163.62296 163.30984 -886.07458
161.45325 157.87349 -890.06659
164.52846 158.5634 -890.90106
166.89474 158.48195 -893.03558
161.15553 156.0538 -892.46411
157.97102 154.3726 -893.22516
166.03119 156.57935 -896.21869
166.94531 156.4521 -898.57385
170.5192 158.88033 -899.9115
162.95653 155.04604 -896.00421
165.84816 160.53589 -889.26996
168.12341 163.40308 -888.35602
161.87469 153.72243 -898.31659
162.85295 153.60654 -901.31354
165.4586 155.42758 -903.25989
165.3165 155.93709 -906.15997
161.03792 152.52286 -903.23773
160.98067 152.7984 -906.00446
158.70238 151.16408 -904.2168
156.57072 150.16815 -902.53632
154.12939 149.68532 -900.8855
156.62141 150.99155 -899.96143
157.17223 152.20311 -897.2959
155.21021 152.39955 -895.06598
156.59558 149.91966 -905.70978
156.18707 150.21207 -908.70374
158.91676 152.82051 -911.73273
154.46466 148.57474 -907.11792
152.60858 147.57001 -905.09955
150.47806 147.18968 -903.15955
148.17679 146.8409 -902.09448
147.41469 148.24763 -897.99054
147.55855 145.69769 -904.22601
152.44136 151.6926 -894.19385
150.77605 153.38417 -891.39496
148.24496 151.69553 -892.51923
151.89246 150.44202 -896.75104
146.83513 150.03609 -894.01465
144.09656 148.55351 -895.0705
141.72327 148.72295 -894.31598
138.25243 147.1851 -895.5946
144.67603 147.2401 -897.88123
142.26689 145.85059 -899.3299
139.75934 145.60378 -898.34259
145.92526 152.36189 -891.67511
143.27115 152.56442 -891.38116
145.85144 154.55145 -890.11768
168.13113 158.19395 -906.47888
170.28787 159.29961 -904.31622
168.84317 159.79079 -908.89185
167.24286 159.96289 -911.69098
164.35939 156.89246 -911.55579
170.68665 162.23105 -909.46295
172.49565 161.39742 -904.26477
173.28491 163.56711 -906.57764
174.37112 163.62373 -902.41541
174.31207 163.65819 -899.94446
172.63788 161.31587 -897.59924
175.22069 166.29951 -902.17773
175.20375 169.79733 -900.84906
175.48964 168.07344 -904.51233
174.51311 168.98793 -909.16064
174.18887 174.21469 -910.11176
174.80504 169.99921 -897.52948
173.99332 167.46103 -896.41455
175.25989 172.46915 -896.11786
175.37561 177.93063 -898.10394
173.30821 173.81224 -891.50458
170.97063 160.51067 -895.21783
170.81502 161.83003 -892.74994
171.89069 164.54015 -892.51794
172.20589 168.00478 -892.39038
172.41159 170.89424 -891.83173
174.16791 165.90053 -907.7019
163.07582 154.54129 -907.03052
164.45769 156.05853 -908.96851
160.37938 153.05719 -908.83636
158.14104 151.77989 -909.50427
156.68767 151.3847 -911.547
157.3779 152.40221 -914.09955
154.59087 151.23949 -916.58185
154.25851 154.04378 -920.74066
157.83432 157.95 -919.94995
156.71413 153.10472 -917.00018
159.4165 153.91408 -914.07245
161.55833 155.61281 -913.87567
161.82123 157.67285 -915.97766
161.25754 160.52258 -918.39166
159.91585 158.10599 -918.14203
163.51768 163.78954 -918.23993
162.30945 167.4751 -920.87067
152.50444 149.29831 -914.50305
150.51497 147.54791 -912.49048
159.40378 160.20668 -919.94922
157.15245 162.19284 -923.4278
153.32675 161.72244 -926.41827
150.38867 157.76746 -926.62762
157.34967 159.84259 -921.63794
158.69215 161.85959 -921.71509
158.82045 164.55949 -923.1629
159.64803 168.26099 -923.0199
157.61449 169.95807 -924.17596
155.46606 169.38519 -925.55518
153.74226 165.95782 -927.06396
157.78131 172.66817 -923.42029
160.14651 173.84334 -921.71039
162.23798 172.347 -920.61285
164.53943 173.68349 -918.85156
164.57359 176.59209 -918.22394
167.26007 178.82957 -915.58752
166.42772 171.82368 -917.82117
170.00209 172.88469 -914.95911
169.48781 181.07301 -912.56824
168.1507 184.66989 -910.18091
161.45094 178.55365 -919.65497
158.10782 179.7717 -920.94507
156.27322 182.868 -918.73621
163.76155 180.44231 -917.19263
162.00854 183.61423 -915.30884
162.91826 185.83044 -912.06006
156.09637 175.15112 -924.02606
153.68559 174.64076 -925.51831
152.3486 172.1996 -926.84631
151.18582 174.614 -927.02179
148.61772 178.38353 -926.58575
154.74545 177.45164 -924.08398
155.7422 179.35703 -922.43921
153.11813 179.51637 -923.68817
166.23109 168.97667 -917.90039
168.56357 166.85272 -915.17645
151.22514 166.30006 -928.55652
148.04974 165.03444 -930.44775
146.00587 161.11592 -931.35229
143.97107 165.39319 -932.63922
168.12607 169.69461 -916.43945
159.98747 176.53214 -921.20428
150.63733 179.40761 -924.95929
151.27107 181.32794 -922.6203
151.68181 183.22942 -920.24432
149.18605 182.87051 -921.70239
146.7469 182.40497 -923.14453
144.89229 180.85901 -925.56915
141.6172 180.54518 -926.94714
145.38271 184.42244 -921.52014
142.7209 184.95171 -921.8382
140.74113 186.06615 -920.75183
136.42902 186.54683 -919.99115
141.0918 183.88954 -923.64471
138.51814 183.409 -924.90143
136.2421 184.43185 -924.13995
133.94412 185.45061 -922.31848
145.6219 186.08336 -919.43872
143.94127 187.31627 -917.11548
148.09476 186.28908 -918.26086
150.05542 184.91536 -919.21173
150.33832 186.60327 -916.89905
152.68643 186.85757 -915.34467
155.24176 187.00237 -913.96667
157.54256 187.33923 -912.39221
154.74474 185.66875 -916.11407
150.33183 187.73952 -914.39044
149.93018 188.45854 -911.53168
147.76357 188.20876 -913.2757
145.02213 188.21603 -912.99805
142.56311 188.46144 -911.23712
144.05681 188.99763 -908.58502
139.88718 188.09572 -913.22235
147.56946 189.22733 -907.27454
142.51405 189.28169 -905.17059
142.45569 188.75441 -902.3454
144.23602 188.22754 -899.84766
138.27769 188.61241 -910.4726
137.49092 188.76573 -907.30829
135.25114 188.01047 -905.58026
131.27133 187.41156 -907.008
141.53754 187.25587 -917.60162
164.52602 186.87248 -909.57904
159.83302 186.14804 -913.20441
154.98802 188.19008 -911.65833
152.54451 188.75385 -910.37573
153.6591 189.19894 -908.2337
172.52153 172.46582 -912.56946
145.03369 144.78799 -904.45374
142.72066 144.62364 -902.84552
140.40422 143.45911 -903.75238
138.93472 142.31015 -905.93018
136.46938 141.30034 -906.98676
134.30547 141.1756 -905.33075
134.46103 142.2943 -902.52985
138.36218 143.27042 -902.51904
137.93623 144.44913 -899.685
137.16685 145.61566 -897.38483
136.3243 140.66995 -909.70386
134.28606 139.48653 -911.33722
132.1557 138.64253 -909.82904
134.78694 139.32454 -914.01599
137.01706 140.64183 -915.60425
139.3541 141.96858 -916.20532
130.85933 138.80402 -907.64001
127.70997 138.14598 -905.23334
127.99809 140.23822 -902.68591
132.91415 137.69955 -915.41901
130.56561 135.49966 -918.53058
130.7121 136.19464 -914.20056
128.90195 135.74562 -911.59021
126.39491 134.31413 -911.39136
123.78678 132.99666 -911.72607
121.45856 132.78413 -909.83661
121.11138 131.76416 -912.5097
118.5194 130.45937 -913.69946
116.30267 129.19633 -915.18329
112.66296 127.39225 -916.74664
116.37105 130.18037 -912.26337
122.53013 134.44257 -906.73138
125.13506 135.62569 -906.75305
121.49521 135.49295 -904.25854
120.72755 130.78441 -915.23096
122.76244 131.16373 -917.15527
125.19781 132.39862 -916.6463
125.73296 133.2139 -914.04596
127.45808 133.62746 -916.55914
124.33146 131.67577 -919.12018
125.50784 132.39056 -921.76538
127.84409 133.82527 -921.8396
130.21928 135.63522 -923.03406
132.25661 136.97667 -920.69635
130.07553 136.25851 -925.9278
132.01834 138.01237 -926.95703
131.83858 138.93915 -929.7981
127.95974 135.21964 -927.30835
134.06822 139.30559 -925.07117
135.92537 141.55943 -925.86523
134.14957 138.90027 -922.39459
136.0457 140.43002 -920.46509
137.82732 142.03264 -921.15356
139.9153 142.90802 -919.07117
142.0569 144.46051 -920.15167
142.69843 146.52072 -923.38403
143.37056 149.31531 -926.23206
142.21593 152.64511 -929.96484
146.87804 151.31641 -925.17059
147.37201 154.70137 -927.29816
149.19064 150.34335 -922.11029
135.6998 142.41255 -928.4339
133.80528 141.11652 -930.37756
137.10092 144.75243 -929.0285
136.92162 146.29056 -931.28094
139.28461 149.61087 -930.69293
138.98552 153.38187 -933.64679
129.58658 137.72717 -931.21259
133.72528 142.64395 -932.80206
134.90211 144.92706 -933.3924
134.68633 147.35056 -935.68262
132.00233 142.1918 -934.82452
131.16747 143.51573 -936.98657
132.13869 145.71251 -937.4856
130.23999 140.18361 -934.66278
135.66771 150.77559 -936.52826
131.23378 147.66743 -939.47699
129.11548 147.58224 -941.2442
137.87231 142.95844 -923.83295
139.94893 145.05411 -924.39197
129.13896 143.09698 -938.69379
128.10362 144.6747 -940.57349
126.02808 144.09201 -942.02533
124.55921 141.87967 -941.97913
125.05974 140.02432 -940.15997
127.54722 141.06133 -938.63745
128.13753 139.6769 -936.57324
126.87132 137.97853 -935.76862
126.25805 136.50606 -933.9707
124.27827 135.18077 -934.22913
127.72195 136.71313 -932.00433
127.51241 135.77145 -929.89496
138.68666 145.98706 -927.68427
138.63022 147.52124 -929.64191
131.06468 149.84409 -940.76007
131.57417 153.20134 -941.68469
132.46902 151.77385 -940.34631
133.73955 154.3353 -940.02209
135.15276 156.43217 -938.96936
136.83359 156.22404 -936.93109
139.01454 159.40141 -935.33319
137.01303 163.32248 -936.94397
142.40419 159.87476 -933.1925
134.35951 151.98599 -938.55536
134.36304 158.83997 -939.95123
132.3459 159.16447 -941.91663
130.68665 157.72316 -943.20056
131.93872 161.97212 -942.00745
131.85658 164.75066 -941.47479
133.44672 166.21187 -939.55353
131.04176 167.15825 -941.31689
128.60921 167.64655 -942.76691
126.91413 165.87767 -944.28436
124.66099 165.88408 -945.54169
123.367 163.09785 -946.99146
135.38474 161.45212 -938.8092
128.71883 158.46742 -944.60132
127.8658 161.22026 -944.79865
129.60788 169.65303 -941.22046
130.49371 171.35933 -939.45538
132.57147 170.83101 -938.00354
134.72926 170.74951 -936.2674
137.14464 170.88037 -934.78162
135.2872 172.85481 -934.77502
139.59018 171.18221 -933.62146
140.62888 173.59123 -932.34253
142.1086 175.87375 -930.7124
144.87134 175.63893 -929.81726
142.00723 171.28519 -932.57397
143.34869 168.62964 -932.52185
138.34639 168.54814 -934.94653
137.30363 166.04759 -936.20795
139.85394 166.53795 -934.60962
135.27357 164.0751 -938.42542
133.82416 168.60025 -938.25024
144.22633 170.8011 -931.63794
145.97803 173.14694 -930.21716
135.36623 166.55276 -937.65887
130.10774 162.87714 -943.15118
131.08459 173.04463 -937.6767
131.4724 174.78381 -935.84119
129.58395 175.07921 -937.18842
131.80646 176.53893 -933.95752
132.88388 178.03905 -931.89722
135.57283 178.40356 -930.69861
140.9259 178.37929 -929.2182
138.13397 179.3029 -929.19611
135.5667 180.40033 -928.81555
127.95659 176.93222 -936.70081
126.33202 178.67056 -935.91724
124.04794 180.14749 -935.57239
123.4045 181.89978 -933.19543
127.59429 175.26863 -938.72296
128.28168 178.54129 -934.27838
128.1048 180.04408 -932.23413
125.6558 181.44307 -931.92847
121.83047 180.94786 -935.72461
120.97501 182.35988 -934.0188
118.57954 183.57692 -932.95416
120.1144 180.25223 -937.4364
117.40602 180.89186 -937.6214
136.11674 174.63675 -933.34515
138.30611 175.06989 -932.31354
148.17572 170.87177 -929.52094
149.60077 168.50574 -929.11963
137.54778 154.09717 -935.59729
155.8448 157.9054 -921.82849
154.02756 155.88216 -922.2157
151.96117 155.98781 -924.14069
152.1978 154.03767 -922.63239
156.05699 156.10458 -920.42639
158.06244 155.87643 -918.37622
118.54716 132.34026 -908.38239
162.06708 169.75697 -921.09241
123.79862 134.00449 -932.12378
122.03627 132.68584 -931.8125
144.41684 152.37762 -927.98944
116.50701 128.41989 -918.0105
119.13223 129.08624 -919.90491
125.84973 132.99686 -924.15906
137.11203 151.82253 -935.21661
120.45779 130.03694 -917.80182
128.09975 163.69719 -944.18976
128.24355 172.06992 -940.77399
126.25666 172.34338 -941.9328
124.75427 170.705 -943.67426
152.61581 152.13802 -920.62537
154.35963 152.14877 -918.72662
150.81689 151.94836 -922.28894
150.68898 150.22966 -920.32971
149.40445 148.34042 -918.14301
148.93355 148.86015 -920.185
146.92755 147.39113 -920.02087
144.50636 146.39287 -921.14728
147.51096 148.75095 -921.74426
147.39938 150.00377 -923.45276
148.8098 151.80537 -923.93182
145.59288 149.48889 -924.50867
144.15753 148.05908 -924.18677
142.049 147.59441 -925.5188
166.29825 161.42516 -914.10358
167.27795 164.32309 -915.03418
165.28607 163.04071 -916.08539
169.37543 165.17043 -913.49878
125.19184 137.08578 -936.57788
124.12764 137.81155 -938.9187
139.71727 187.88828 -901.63324
137.06133 187.01097 -901.24207
138.95044 186.7357 -899.11975
140.8898 186.46393 -897.16541
143.56494 187.20848 -897.64685
134.39516 186.05147 -900.66949
134.96327 187.14673 -903.23413
140.05441 188.78409 -904.29224
160.55058 166.16652 -884.02179
162.6185 165.20409 -884.72021
164.53947 167.04591 -884.52124
167.52702 169.79535 -886.14368
164.37025 169.67712 -883.92346
161.68088 170.26659 -883.23999
154.19571 184.18369 -918.15503
154.17618 182.69301 -919.88794
156.21227 181.13522 -920.67889
156.58438 184.46577 -916.77075
158.34862 183.33836 -917.32874
158.20993 181.6414 -919.23346
98.418846 134.40559 -966.50061
104.12253 135.96962 -964.54413
97.191345 129.72687 -966.90869
93.487427 126.20048 -968.97375
75.739471 177.44054 -915.6084
101.91382 173.82793 -950.21582
62.883747 177.03145 -927.83569
60.427887 175.92319 -927.37366
63.726154 177.83011 -930.13342
62.333214 177.82477 -932.82959
59.77935 177.382 -936.70959
55.886787 176.18115 -937.48816
53.049446 175.49069 -942.71088
59.216793 175.89056 -929.48425
57.141975 174.97054 -930.66138
59.561478 176.6322 -931.9668
55.31012 172.17685 -928.23303
54.992344 173.9386 -932.67889
52.470287 173.98123 -936.20172
53.769035 171.52209 -931.00037
53.47308 169.70949 -928.44501
52.492489 167.60001 -926.48584
100.2345 181.79495 -910.05042
55.852547 95.068817 -963.48566
62.337658 94.818665 -963.15796
160.71606 154.15245 -911.76379
162.71863 155.5293 -911.58014
126.38097 160.76527 -889.08295
124.85938 162.7205 -889.30847
110.76274 153.42528 -891.89008
131.80597 136.58904 -917.25189
104.51099 122.94685 -922.65686
107.92331 124.34925 -924.01208
111.0581 125.70408 -922.21991
107.00706 124.64941 -920.16388
102.39919 120.79408 -925.31396
99.162369 119.37775 -924.33563
103.07304 120.20696 -928.28027
105.93027 121.84229 -930.03723
106.45838 121.35384 -934.61542
109.1331 124.40857 -935.63403
108.44445 124.19981 -928.32806
110.54059 125.44473 -929.41174
112.90143 126.41586 -927.81342
112.75111 126.16415 -924.94989
115.21224 127.69772 -929.1452
110.44643 125.63688 -932.41266
113.23401 127.93848 -934.43201
113.73777 129.66055 -938.04901
111.90324 128.74638 -940.44574
110.21775 125.77502 -940.27533
109.75207 123.31491 -942.80249
110.00362 122.0362 -946.3927
107.28844 119.73014 -943.08813
105.04089 119.49932 -939.65607
104.88152 119.82958 -936.76868
102.73756 118.73896 -935.02881
100.92577 117.95965 -932.26074
98.037872 116.8025 -931.94489
96.023979 116.72822 -929.46368
96.462318 117.66424 -926.68396
93.615997 117.42587 -925.3457
91.031593 116.80257 -926.14667
107.6273 122.19028 -936.58362
109.08783 123.85635 -938.15479
113.82333 130.86069 -940.3692
114.50515 132.58075 -942.51471
113.19262 132.75423 -944.91479
116.63519 134.4368 -942.63928
118.39223 134.3792 -940.88068
118.33191 132.9001 -938.61292
116.06289 131.28017 -938.18982
120.48003 135.94064 -940.73303
121.91717 135.50943 -938.45789
121.05753 137.80621 -942.11969
123.05809 139.44392 -941.63849
119.37875 138.25615 -943.99854
117.18237 136.59589 -944.4093
115.3301 136.98883 -946.25555
113.48426 135.32314 -947.2887
112.80149 136.76353 -949.75439
119.41309 140.44193 -945.51251
117.76254 141.12953 -947.25214
121.0798 141.76624 -944.94623
122.80777 141.67488 -943.41241
111.89562 130.56496 -945.76672
111.82983 131.30295 -948.37323
111.93769 131.25598 -950.88135
111.50717 128.48175 -943.65216
111.98119 133.42841 -952.06207
111.93975 131.72665 -954.21136
111.06889 133.41714 -958.48444
111.52789 129.23459 -956.23804
108.05379 134.92525 -962.35162
111.83872 128.67447 -950.599
111.42048 126.29179 -949.39313
110.75286 123.49781 -948.77936
111.1251 126.10568 -946.9281
111.96372 135.88588 -952.02094
111.52449 137.35843 -954.68457
111.39948 135.77371 -957.00482
110.32555 135.91701 -959.61011
108.17854 139.39862 -961.35565
111.08652 139.89204 -955.82867
110.09642 141.56528 -957.95599
111.56059 142.12173 -954.39423
108.0457 145.14137 -959.90948
104.69865 146.7493 -962.21704
112.7568 146.34212 -953.50842
111.68272 127.02411 -952.41565
110.93604 125.15968 -954.38281
110.14864 122.86999 -953.48853
109.59818 123.56725 -956.06537
108.91035 124.52697 -958.44189
109.54756 127.12178 -959.62329
107.09106 122.88408 -959.25183
105.47006 123.41172 -961.60095
103.36819 122.15748 -963.16833
102.51663 118.71893 -962.80518
102.68044 117.26814 -959.32153
100.53332 114.85564 -956.64478
105.96834 120.68016 -958.42236
106.24612 119.20084 -955.8631
105.11364 117.04098 -952.8418
102.60253 115.57991 -952.49756
105.67665 125.73576 -962.74664
103.41196 128.11049 -964.78003
105.79609 132.2321 -963.97327
101.07113 127.21346 -965.69977
107.78329 127.79472 -961.86877
100.32951 123.80811 -966.26556
101.87531 116.60591 -964.83069
100.85396 117.71465 -969.26996
98.384972 118.09492 -973.84033
98.386055 114.17661 -978.7171
101.61648 112.6467 -964.8703
102.13667 108.50761 -966.698
103.9575 110.15807 -971.16931
94.439224 120.99333 -972.25214
101.808 115.14697 -950.052
99.170189 114.58588 -948.92145
102.81837 115.86919 -947.55609
105.78599 117.2085 -947.59302
107.24947 118.13913 -950.12036
97.635513 114.5226 -946.89563
99.077698 115.57327 -944.3175
101.35116 116.54022 -944.13367
101.49557 117.58472 -941.7218
100.37575 117.5854 -939.44531
97.73999 116.13875 -939.66522
95.981674 114.63181 -941.04193
97.041061 113.91548 -950.89398
97.292694 113.68994 -953.80322
93.189842 112.15965 -956.06677
94.101921 113.39107 -951.05646
92.812256 113.30038 -948.71326
99.356834 104.58258 -965.92511
99.800713 101.26371 -969.11786
102.78915 101.88618 -973.66882
109.37204 120.46429 -948.914
94.900696 113.80912 -946.27216
92.596718 113.21102 -945.6123
90.685043 112.10575 -943.59088
86.954536 109.9164 -943.01331
89.79882 110.3315 -941.54358
91.039337 109.83456 -938.50226
88.503036 108.0147 -940.28796
87.24305 107.53942 -934.97382
100.66833 117.84319 -936.62244
96.900139 115.83573 -936.58038
82.980568 104.51137 -935.30652
106.03448 118.23154 -944.88721
111.50153 127.56293 -954.89148
96.42643 115.90941 -934.23926
94.676201 114.46024 -936.17963
92.848183 112.37975 -937.54865
92.66774 113.49262 -935.11407
95.754417 116.0198 -931.89325
93.59819 115.68508 -930.92975
92.079529 114.31765 -932.76056
90.270248 113.03786 -933.67712
88.997551 111.137 -934.32471
87.87159 113.71786 -932.48047
87.436943 115.27798 -930.07422
85.607346 113.85167 -932.09357
83.093483 114.06202 -932.0321
81.989876 115.1396 -929.78925
83.345627 115.91837 -927.46191
80.862892 115.76457 -927.47546
78.232109 115.37183 -927.29053
76.273247 114.31243 -929.24048
80.465126 114.01675 -932.02094
77.686348 113.81554 -931.56616
78.966667 112.26281 -933.94189
80.43071 109.93492 -934.62354
77.408485 109.78803 -934.88318
75.978203 107.20202 -935.78894
83.804276 109.85006 -933.92987
78.42968 103.27568 -938.83911
77.884361 116.27103 -924.87579
75.104218 116.21118 -923.70111
72.875633 115.19379 -924.97803
71.914925 113.92986 -927.63171
70.911964 116.13936 -923.27209
71.178688 118.28174 -919.58966
74.53653 118.61551 -918.11023
74.772865 110.60264 -935.00049
72.834976 111.63776 -933.1424
69.958679 111.38383 -933.35504
68.503998 109.71146 -937.45441
68.555222 112.45763 -931.14514
74.687302 113.0668 -931.67468
89.962265 115.88729 -928.59692
77.524063 119.1142 -917.10101
78.352829 120.87823 -913.71405
84.095268 112.24509 -933.5885
90.823311 120.22865 -974.49872
90.111076 117.92378 -978.24127
93.343948 114.03963 -980.92029
86.221596 120.27067 -980.23462
98.065933 109.83573 -983.26984
87.372169 122.36188 -975.92328
86.265831 127.76208 -973.46698
84.722984 118.45714 -984.4408
82.591736 116.73689 -988.69598
82.20285 122.17811 -981.94379
79.967026 125.8199 -979.73145
76.608727 129.52493 -978.47681
81.366562 129.12196 -976.1416
72.0056 131.01862 -979.21472
79.424194 133.9758 -975.00623
82.761902 137.44785 -973.69165
87.1026 136.10233 -972.00684
84.812538 141.52377 -972.70068
76.976547 137.39964 -975.01068
74.848648 142.16798 -974.03668
72.030586 137.37204 -975.96057
81.212845 145.12897 -971.60907
93.906784 113.21476 -941.26917
78.731773 116.32687 -991.57581
99.097984 98.712563 -972.94965
97.805717 97.222702 -976.55933
97.932533 98.331154 -980.42889
99.59832 101.80582 -981.48584
102.45024 103.55067 -978.91858
100.72032 106.2478 -982.46082
95.568748 96.705437 -972.33508
97.427467 100.01634 -984.37201
96.489563 101.75626 -988.37878
93.228439 93.955246 -972.53119
93.328293 90.991623 -975.86255
94.661842 91.964554 -980.72235
91.97699 88.071205 -979.14221
90.194832 91.37896 -972.05035
92.688911 97.242401 -970.18457
89.339958 98.152466 -967.92456
85.904305 98.537567 -965.44104
86.253838 102.26432 -963.29578
84.136147 104.22041 -960.04333
86.49472 95.173119 -967.80554
92.462227 100.77831 -968.02368
96.346268 106.19003 -987.96985
89.521431 104.75922 -963.70038
96.23912 94.938507 -979.62384
86.631409 88.956841 -971.9801
86.87059 92.342636 -969.67584
84.67334 87.30249 -972.6568
80.868919 87.877739 -970.93866
86.397667 86.140114 -974.63092
86.059166 84.228233 -976.74768
83.588928 82.881996 -976.6817
81.088463 83.818687 -974.6593
85.591461 82.169548 -978.97003
87.602837 81.311264 -982.36908
90.681641 82.283455 -986.93799
90.631172 77.427757 -990.13214
84.988037 79.921432 -981.01691
88.479332 86.018425 -976.58673
82.513626 77.62323 -981.51794
80.200508 78.59388 -979.58807
85.114609 76.775543 -984.00732
86.92263 74.233711 -987.75781
84.587631 73.600311 -986.41681
81.052475 71.995636 -986.01392
77.774246 73.686714 -983.461
78.214424 69.426987 -987.7406
74.82901 66.665497 -990.10541
85.584496 72.052658 -988.46088
85.664597 68.347122 -991.56165
89.154572 67.925484 -994.63727
91.958862 70.457207 -996.36505
92.158615 74.83017 -994.3476
93.631073 79.227676 -996.41663
79.106949 75.651085 -981.93567
92.445381 86.536171 -988.84821
87.89241 72.658546 -989.95581
90.055855 74.585999 -991.09601
93.624527 90.606743 -985.96832
89.173126 64.578575 -997.21814
91.34745 63.373192 -1000.3544
92.030838 59.902546 -1003.5222
94.514229 58.69857 -1007.589
85.924614 61.333721 -997.61115
84.174973 57.936199 -999.93054
82.396912 62.291241 -995.23993
82.577637 65.080482 -992.81158
81.211823 67.363831 -990.38916
79.537308 62.051762 -994.87402
76.251198 59.71249 -997.03735
77.495911 56.102268 -1000.6394
73.162941 57.724995 -999.16284
73.550583 54.548546 -1002.3953
68.217293 51.979298 -1005.8486
62.271267 55.539398 -1003.4926
75.277962 63.428848 -993.32422
70.674522 64.268456 -992.62134
68.675133 59.709671 -997.57916
65.068802 58.066998 -999.97906
60.035431 60.048031 -999.3924
54.922024 62.636086 -998.46283
50.936604 61.887085 -1002.1961
47.011623 66.180237 -1002.5055
51.546192 57.911175 -1006.4456
49.558342 56.345764 -1011.4219
46.665054 59.225929 -1013.9591
44.11264 66.653465 -1012.1147
77.544777 52.898643 -1003.8556
81.285149 50.197212 -1006.5223
80.405754 46.195751 -1010.553
75.656349 42.091953 -1015.2109
47.113632 56.239643 -1018.608
48.907963 52.179939 -1021.037
52.098614 49.306385 -1018.6242
54.256184 50.570354 -1013.7789
55.483459 45.325024 -1019.4684
59.730988 43.312939 -1018.3643
62.821697 44.973946 -1014.8897
63.638958 40.172852 -1020.1249
69.182793 38.298927 -1020.341
69.642075 32.933048 -1024.8923
62.985348 36.683178 -1024.2933
55.073105 42.636833 -1023.9548
52.196693 43.818489 -1028.132
56.873367 39.031666 -1026.6042
57.625977 35.70153 -1030.1213
58.743805 30.40958 -1034.0405
58.51519 24.528381 -1038.7202
55.388783 35.921898 -1034.8658
52.492054 41.035248 -1036.7743
54.358711 36.791424 -1039.9086
54.933727 33.280125 -1045.3652
53.978848 25.974323 -1046.8147
46.048756 58.55637 -1023.4712
46.932644 59.253235 -1028.6465
49.415649 49.645576 -1025.7881
48.580002 51.796558 -1030.0748
90.2761 84.529419 -982.77155
84.906502 92.813354 -968.54828
80.972023 91.115761 -968.4436
80.329338 93.856216 -966.11975
76.934036 94.227455 -964.80029
73.422272 91.791405 -966.13733
73.308586 95.494713 -962.89478
68.584 95.509232 -962.4176
66.697166 98.486916 -959.40332
80.571487 96.923126 -963.85693
83.567932 98.121315 -964.32507
79.696503 98.801552 -962.01715
77.00032 99.074097 -960.76709
73.917267 100.66119 -958.31152
70.063576 101.01472 -957.00323
80.55024 101.41916 -960.19592
80.830528 104.71223 -957.0733
102.49146 143.94742 -964.00323
102.86676 140.11874 -964.56116
98.130447 125.46082 -967.27838
71.208862 107.89151 -939.15778
70.502563 67.998978 -988.86835
69.649605 113.47043 -928.58264
91.667137 76.679863 -992.44281
91.902473 79.678436 -991.48785
92.822868 77.296738 -994.69543
93.701942 76.933235 -997.14825
94.970055 76.347374 -1001.4615
94.399979 78.512177 -999.10602
94.173798 82.836624 -998.51862
94.444679 85.583786 -1002.1804
95.610008 75.691299 -1004.0508
95.965508 78.556213 -1007.029
91.649017 81.949005 -989.59949
90.636215 79.680931 -988.70331
89.066414 77.674461 -987.52985
92.842606 79.938316 -993.85809
93.518646 81.792809 -995.78363
93.215202 85.631752 -994.23389
93.387146 89.674873 -994.53052
93.629585 94.06266 -993.86926
95.192917 73.778412 -1002.5492
93.917282 70.76049 -999.96851
95.882187 72.90432 -1005.0659
96.188736 70.409348 -1006.2757
94.88707 66.949081 -1003.7216
96.391411 65.042854 -1007.8323
96.78273 71.637657 -1008.6152
97.554077 70.554825 -1012.1318
97.714142 66.657776 -1011.7908
96.873825 74.171165 -1010.3597
96.720322 76.348801 -1012.6027
95.166061 79.769073 -1016.8883
96.684319 76.392853 -1015.6839
97.995728 71.625397 -1018.6715
98.340935 63.87291 -1014.1837
99.165344 64.196091 -1017.8131
99.774658 62.756901 -1021.0494
99.999176 58.33342 -1020.851
99.024086 67.276016 -1019.7072
98.223412 70.386612 -1023.1249
98.927505 67.016586 -1027.0038
98.32489 60.157608 -1014.7437
96.697639 58.237343 -1011.7057
94.352501 54.449039 -1010.3077
98.582649 57.833057 -1016.2894
98.50473 54.009071 -1017.4462
96.300201 51.726917 -1014.7869
94.680931 48.028809 -1015.1584
90.833366 46.003017 -1013.4062
89.366104 40.528145 -1017.2691
97.952042 70.542694 -1015.0516
96.48439 76.521179 -1009.5938
85.578293 51.922722 -1005.6633
86.808548 55.565884 -1003.0339
89.198349 50.919846 -1008.2055
78.389252 113.16918 -995.40643
82.190239 109.88377 -997.57568
102.17192 114.38416 -967.61652
87.922806 131.37872 -971.20233
73.609352 51.312737 -1005.7147
67.500221 45.607525 -1012.7585
69.94091 47.931835 -1009.7828
73.196617 45.258095 -1012.0588
60.89566 48.217091 -1012.0914
61.49749 51.222412 -1008.5504
77.220047 89.018341 -969.21692
74.213737 86.873451 -970.66016
72.08567 85.864594 -971.44769
68.48896 84.211304 -973.03687
68.3918 87.277222 -970.18988
66.282715 89.372612 -968.3009
62.616791 91.475548 -966.40991
60.834156 88.494377 -969.49377
56.158611 88.556107 -970.33325
65.718452 84.333839 -973.21216
61.802349 85.723137 -972.20557
62.731812 82.275017 -975.63525
52.371147 91.47654 -968.89313
46.989086 92.58329 -971.69965
69.771812 90.161423 -967.39978
70.673683 92.931526 -964.8277
58.004807 86.536362 -971.89905
54.965862 84.676704 -974.79834
49.885941 85.493896 -977.03387
48.952553 81.661247 -981.93951
59.881519 81.452797 -976.85144
57.191196 80.207382 -978.70575
54.326 78.716896 -981.32495
50.703423 78.180244 -983.98859
58.459908 76.59314 -982.25543
58.903515 73.443039 -985.50018
56.131966 70.050133 -989.73566
51.29179 74.992821 -986.86749
48.551422 74.372299 -989.96442
48.245445 71.50531 -993.61609
51.908871 68.127281 -993.99127
45.534775 77.126328 -990.82129
44.982292 80.359619 -988.0354
42.466244 82.90892 -990.37238
41.332226 83.093369 -994.68256
40.679466 86.02636 -998.25238
42.10062 87.970985 -1004.7692
42.087471 78.845589 -997.79919
42.247883 75.886513 -1003.0162
44.292797 95.623116 -1004.2021
43.451164 84.473068 -1010.2402
41.437405 86.732391 -988.53864
42.445961 88.279167 -983.95789
45.882725 85.931526 -980.86005
47.574429 69.090523 -997.56299
44.840004 70.920509 -1000.5379
40.897327 92.834274 -982.91235
38.954155 97.124321 -985.24213
35.772739 101.93491 -983.99335
35.786362 108.15347 -987.64624
41.058876 94.429787 -978.24542
37.743011 97.192467 -974.64423
44.104828 92.5392 -975.44464
47.719055 89.273605 -974.98499
39.990173 97.030029 -990.75525
41.557854 100.97393 -993.96082
43.19294 99.542732 -998.513
40.962917 106.43869 -991.13763
44.674957 109.1079 -993.46643
46.098911 114.15797 -991.62805
52.869083 117.28666 -992.59424
62.400887 80.219162 -977.72211
62.91959 77.781654 -980.13007
60.76194 76.942619 -981.41315
60.222137 75.066612 -983.50128
61.849483 72.45932 -985.87927
64.507355 71.180611 -986.59644
64.06636 68.148926 -989.66858
63.253555 64.977028 -993.11334
60.139767 67.830238 -990.94513
60.046806 63.221474 -995.91278
47.983612 107.82726 -997.65454
51.265438 106.90884 -1001.2157
56.93589 105.06925 -1005.5363
56.248394 109.05507 -1001.5064
48.649788 111.67799 -994.77069
57.100052 112.66118 -998.25092
47.13879 103.89258 -1000.5078
46.12851 100.03683 -1002.9579
48.11412 96.820259 -1008.2713
44.123634 76.509949 -994.38666
43.080929 75.900063 -998.22888
64.827568 76.278831 -981.34741
67.506805 74.429878 -982.78094
68.821289 76.255119 -980.78296
72.113632 77.106834 -979.78009
74.433403 74.614792 -982.24725
72.752472 72.600105 -984.2207
71.058441 71.109848 -985.74896
69.335327 72.574455 -984.42749
66.575043 72.711662 -984.6839
54.220695 73.303902 -987.04895
40.190132 93.004936 -992.96722
57.424789 82.285217 -976.48358
70.354202 81.775978 -975.20502
73.03878 80.988609 -976.00391
74.50161 78.971161 -978.06915
67.980988 79.739151 -977.38947
75.126755 82.983299 -974.26086
89.582657 112.55724 -949.04852
86.358147 110.59859 -952.72852
86.940727 111.77441 -947.74725
67.989395 114.53943 -926.66113
67.852303 115.9063 -924.24908
65.628922 114.68082 -926.87115
63.069393 115.02081 -926.53088
61.946438 116.34647 -924.67078
60.261585 115.05676 -926.46606
64.175827 113.58225 -928.93127
65.499725 112.46718 -931.19232
62.67123 112.53249 -930.86176
64.005867 111.46882 -933.31671
65.216682 110.70971 -935.48785
62.278042 110.50698 -935.28546
60.137726 112.68354 -930.26025
58.831711 111.56629 -932.07562
56.134827 111.28548 -932.16156
59.48222 110.45238 -934.51544
60.900105 109.58723 -937.21985
62.264862 108.56628 -941.1131
59.470203 108.69735 -939.37915
56.841511 108.45923 -938.67902
55.363731 107.56522 -940.6062
56.258526 106.92484 -943.27307
58.678776 107.05737 -944.18939
53.835556 106.08834 -944.61591
54.213234 105.19704 -947.33752
56.703304 105.10627 -948.42035
51.793152 104.3329 -948.72955
57.163612 103.95982 -951.14233
58.714973 102.09278 -954.88525
58.877712 106.12286 -946.75311
62.835064 105.99843 -948.31848
65.622414 107.66691 -945.00531
61.883724 101.52225 -955.87732
55.161057 100.46451 -957.22931
56.117596 98.105232 -960.02911
59.84465 97.004074 -961.04071
62.834919 98.447533 -959.50372
63.41058 104.05699 -952.07434
68.099754 104.06589 -952.84247
64.484741 96.575752 -961.41339
70.292641 105.93294 -950.42883
59.047886 104.93283 -949.5033
54.629326 103.12521 -952.52905
55.050884 101.84148 -955.09027
97.244995 67.970047 -1031.5991
95.250801 102.11266 -967.28534
122.1566 143.69666 -945.11395
121.40714 145.34117 -946.58435
119.50706 145.33408 -948.0658
120.97565 147.30115 -947.8678
121.52583 149.54472 -948.3609
123.29991 145.63585 -945.13757
124.91859 147.70702 -944.79895
125.10477 145.76492 -943.66815
120.40611 150.89484 -949.59033
117.69212 149.21886 -950.9397
123.36195 149.16972 -946.73608
124.55431 150.91714 -946.46753
126.20695 152.04468 -945.565
127.86983 151.02275 -943.90417
127.86504 153.60829 -944.74237
129.69168 152.92635 -943.13611
124.24915 153.21321 -947.31036
127.31396 156.16713 -945.52905
125.01947 156.01878 -947.06598
122.25929 153.03581 -948.7113
121.03995 154.53386 -949.64459
119.13198 155.27887 -950.78967
121.01661 156.64609 -949.55109
122.81358 157.64273 -948.34949
124.6134 158.31339 -947.20013
125.32079 160.94893 -946.35132
121.33853 159.29907 -948.96088
117.76733 153.37791 -951.56274
115.69038 153.85808 -952.65723
114.31964 152.11659 -953.2912
114.72243 156.36961 -953.00183
115.84827 158.45296 -952.13416
112.31957 157.02357 -954.14178
115.17445 161.33109 -951.8725
113.43277 163.80978 -952.09131
110.97414 159.44011 -954.42249
110.96815 154.89049 -955.11572
108.58222 154.3936 -956.86151
106.95139 156.73462 -957.49463
108.43964 151.67793 -957.66187
110.22511 148.99954 -956.24152
112.43755 161.63115 -953.21173
108.37069 159.50568 -955.84491
106.97089 161.9464 -955.84784
103.35865 164.25793 -956.64502
99.587036 163.56895 -958.91266
112.26662 152.58794 -954.4361
121.80896 161.59735 -948.21149
119.49889 160.36398 -949.75378
117.59129 159.62053 -950.96503
117.67393 161.75955 -950.42273
118.40094 163.99744 -949.50513
116.78767 166.01672 -949.7572
117.24884 168.15273 -948.78015
114.82923 165.71703 -950.80316
120.78185 164.18251 -948.17944
116.27788 170.33545 -948.18823
118.31349 146.83711 -949.66376
120.88193 166.23627 -947.58679
119.57139 167.81892 -947.76306
120.81694 169.16953 -946.56305
122.83868 169.17613 -945.44659
120.29361 171.28496 -945.74011
118.31852 171.80815 -946.3656
122.77071 165.34894 -946.78546
110.87962 163.87788 -953.24109
108.75139 165.23633 -953.58923
107.06207 168.74725 -952.42999
127.29464 148.68004 -943.31903
112.85761 166.33919 -951.46307
111.82817 168.56506 -950.88586
82.101944 85.983299 -972.92267
89.484367 80.133011 -986.2868
89.623253 82.48732 -984.31293
90.981674 84.552094 -985.02399
91.6101 84.562958 -987.34784
92.185654 86.891396 -986.19104
92.937111 88.878784 -984.51172
92.97506 89.052246 -981.59314
94.016365 91.074501 -983.41608
94.756485 93.20739 -985.12152
95.733841 96.969185 -987.14532
94.661224 95.115547 -989.33795
92.911346 88.706848 -987.55908
92.996101 88.505104 -990.36786
93.441238 90.562134 -988.7019
92.697853 85.546066 -991.60168
94.134346 92.338989 -987.07697
94.902084 94.539993 -987.13562
95.150131 93.379288 -982.93304
79.508255 117.21574 -923.26819
81.919189 117.50498 -923.30768
84.608398 117.55271 -923.37598
82.830345 116.7373 -925.18787
85.153137 116.64897 -925.66113
86.963486 117.10996 -924.39282
89.41996 117.29913 -924.1264
85.835999 115.9394 -927.99011
89.724365 118.28448 -921.43494
87.706429 118.88431 -919.59589
80.605766 118.12022 -921.32666
81.889359 118.86571 -919.34814
84.460793 118.93362 -919.45642
79.414215 118.67711 -919.08716
85.465019 118.34886 -921.22186
82.905655 119.46998 -917.48151
81.764542 120.37864 -915.01318
84.073395 120.23761 -915.77673
86.424522 120.44199 -915.66113
83.445518 121.22299 -913.73584
84.489456 122.27171 -912.32495
86.810707 122.56322 -912.22919
88.698097 121.62437 -913.9425
87.347527 123.9874 -910.4649
89.69146 124.38734 -910.29584
85.864738 125.00742 -909.16931
86.465302 126.64148 -907.5141
88.591003 127.29003 -907.06549
85.096939 127.75317 -906.42566
85.249718 129.69301 -904.83044
89.974571 128.91653 -905.82294
89.345024 130.66963 -904.36108
92.310204 128.7188 -906.42358
94.172722 130.03424 -905.63879
94.363663 132.29582 -903.80011
93.342125 127.08892 -908.1734
95.640205 126.35925 -909.5202
91.964828 125.63031 -909.31384
94.169334 125.4045 -910.16418
94.468987 124.04032 -911.97388
96.177338 122.96893 -914.33673
89.939018 125.77232 -908.75916
82.955513 123.01891 -911.23767
83.217506 124.74462 -909.31934
76.935646 118.37212 -919.09259
75.532898 117.57085 -920.82257
91.810616 118.62894 -921.02209
90.366158 119.48391 -918.5705
92.489677 120.4249 -917.14941
94.196243 118.71128 -921.87994
95.586563 119.70107 -920.23572
94.499535 120.42558 -918.01031
96.624992 120.7784 -918.56458
97.965439 121.74947 -917.63049
98.428535 122.87497 -915.8728
100.91407 123.67957 -916.22284
103.25016 124.17577 -917.06427
105.27726 124.6215 -917.89813
107.45783 125.33903 -917.89252
109.00762 126.23615 -916.4317
101.7739 122.94112 -918.62213
102.64635 122.55421 -920.74255
100.02392 121.59155 -919.79553
110.81677 127.32917 -914.82642
109.86758 127.77851 -912.52551
107.65398 127.31866 -912.01398
91.614662 132.5334 -903.34137
93.906746 68.044846 -1001.2551
93.386436 64.733025 -1002.1293
46.232586 81.300293 -985.22894
91.829674 103.75076 -965.42883
92.16861 105.52255 -963.87061
94.768143 106.80502 -962.8858
96.095078 109.04148 -961.0434
98.74221 111.30468 -960.69128
94.619873 110.80909 -958.50671
92.11438 110.38201 -958.61749
90.308113 108.51273 -960.48535
87.566238 108.72937 -958.45825
86.485222 109.58648 -955.66791
83.913605 109.14539 -953.06189
80.930199 107.82308 -952.78479
82.401619 109.57035 -950.7121
84.818428 110.63883 -950.31592
85.154083 107.56767 -957.42651
80.842766 80.719238 -977.72815
116.4953 145.95583 -950.51776
114.50352 145.67122 -951.88257
115.50651 143.91133 -950.2923
114.42319 141.83051 -950.32849
113.21329 139.66505 -950.58368
116.37832 142.20856 -948.91058
103.6572 116.86813 -945.41516
52.603027 113.70112 -995.50153
56.455502 116.0282 -994.89465
58.094345 119.5797 -992.01331
63.152409 119.39957 -992.17047
60.919064 122.6117 -989.06824
65.706726 117.43086 -922.76447
66.194695 118.87158 -920.75854
64.150497 120.54502 -919.35321
68.478355 118.96369 -919.77234
96.061783 78.658928 -1014.3969
94.878746 81.550079 -1014.6918
92.717659 83.960495 -1016.7932
89.477005 86.242836 -1018.5892
87.490822 84.203033 -1022.8439
95.049332 82.845634 -1011.1163
94.106331 85.906631 -1009.5644
89.980026 81.22493 -1024.4141
86.525009 80.228195 -1027.9307
93.451263 78.657196 -1023.5115
94.691551 75.079727 -1026.3961
92.20591 87.791519 -1012.4589
93.803322 87.405533 -1007.4253
90.684273 90.195084 -1011.8192
88.423645 91.707703 -1012.9904
88.756592 93.616264 -1010.0286
87.793213 90.240227 -1015.4958
83.947037 90.495872 -1017.878
80.723885 87.565254 -1022.109
91.811684 86.67318 -1014.8179
81.898506 93.224922 -1015.8953
80.337189 90.914742 -1018.7338
76.397339 89.643944 -1020.7504
70.959358 91.639732 -1019.222
92.641518 90.442528 -1006.3945
91.156013 92.164207 -1007.8401
91.926216 92.76297 -1004.8055
92.485863 93.195244 -1001.8804
93.603767 89.698006 -999.85828
90.774734 95.237991 -1004.1509
88.704376 97.015556 -1005.6907
88.637726 99.576675 -1002.7681
88.265007 95.661148 -1008.0577
86.216438 97.688202 -1007.9651
83.942528 97.602554 -1009.9395
83.986206 95.78817 -1012.0127
84.395905 99.686508 -1007.2602
84.646561 101.61288 -1004.9218
84.872314 103.87012 -1002.395
80.998177 106.85691 -1001.532
82.307137 101.50228 -1006.6214
78.778389 100.81089 -1008.8095
74.535942 101.57789 -1008.9308
71.807037 98.726402 -1012.1006
66.923012 99.712791 -1011.1124
62.073845 98.294327 -1012.5705
80.068428 103.5683 -1005.4513
79.015182 105.64124 -1003.6376
74.770485 107.1403 -1003.1506
72.07457 110.00647 -1000.5172
74.798752 95.838921 -1014.8138
72.506653 104.837 -1005.8641
81.441299 97.781036 -1011.1209
78.986427 97.406609 -1012.3688
78.152039 95.557175 -1014.551
58.268616 100.86782 -1009.8971
79.325432 99.281288 -1010.2697
76.548012 97.01886 -1013.3326
74.510521 98.331398 -1012.2764
72.90667 97.092758 -1013.7054
72.359093 94.711937 -1016.1418
69.89962 97.325188 -1013.5546
67.342201 97.433479 -1013.3734
64.389076 94.428902 -1016.1779
61.523159 91.169907 -1019.0872
73.512772 99.97435 -1010.6979
70.813652 100.3747 -1010.4816
69.202354 99.020882 -1011.8632
68.48307 101.06182 -1009.8151
66.921959 104.52381 -1006.3944
65.873192 101.51591 -1009.3401
63.89996 99.968323 -1010.8644
61.707207 105.69769 -1005.4114
68.245842 102.99408 -1007.8926
69.910149 104.89847 -1005.9637
61.097725 100.31548 -1010.6325
59.215931 98.866394 -1011.9604
60.22084 102.3462 -1008.6527
57.589432 102.79008 -1007.8753
53.560036 103.13053 -1006.2059
55.559158 101.06985 -1009.0156
51.382542 99.976822 -1008.0056
56.562817 91.353867 -1018.3519
61.143459 87.562439 -1022.4727
65.03553 85.304474 -1025.0697
58.226852 84.509293 -1024.9686
52.151875 81.702705 -1024.4658
69.520035 86.835983 -1023.9713
71.770279 83.683357 -1027.2162
71.082542 79.996788 -1030.8925
74.859749 76.412544 -1034.3406
72.708565 72.102173 -1038.645
61.977173 82.457977 -1027.424
61.879513 77.889977 -1031.7701
48.354725 76.284042 -1024.4169
59.450596 104.39202 -1006.5883
59.158085 106.50511 -1004.5548
61.206009 107.76458 -1003.4908
65.859741 108.63366 -1002.4474
58.841846 108.74492 -1002.3691
58.561752 110.96484 -1000.1886
62.726151 113.38907 -998.12708
64.162933 106.68462 -1004.4045
56.647915 107.02175 -1003.5831
54.241459 105.21185 -1004.4977
59.956692 96.822197 -1013.9468
55.455898 95.492943 -1014.1996
62.503281 96.167587 -1014.5614
51.237003 94.856674 -1012.4576
66.6978 106.94611 -1004.0263
54.009232 107.23975 -1002.4155
53.386417 109.01976 -1000.3805
55.56757 110.80935 -999.56586
54.383045 112.33026 -997.64709
48.552128 91.859787 -1012.7358
48.091476 86.709343 -1016.3621
46.261497 88.341125 -1012.8062
45.299736 84.030243 -1014.3401
64.852463 116.14783 -995.21033
47.10952 71.218964 -1025.7697
43.618668 80.854286 -1012.7294
44.525845 77.433868 -1016.537
42.28297 80.275467 -1008.4166
41.949341 83.96212 -1006.0484
43.568062 72.877708 -1014.772
42.224167 76.476402 -1007.4432
42.801685 73.387054 -1010.3176
45.15543 81.251076 -1015.9205
56.411003 99.263367 -1011.0308
66.655518 78.894501 -1031.7737
57.208809 97.476219 -1012.9422
57.700863 95.604797 -1014.7341
55.917198 93.625633 -1016.0557
54.239086 91.747078 -1017.0807
51.857784 88.087852 -1018.8224
54.185108 89.552757 -1019.0627
53.354557 93.549454 -1014.9398
54.840427 97.265053 -1012.3498
53.315636 95.382294 -1013.2921
52.228855 96.669937 -1011.5327
49.727478 96.154236 -1010.2621
47.555882 94.339813 -1009.8267
51.447758 98.086006 -1009.7781
44.973343 93.807884 -1006.9579
42.889118 91.704865 -1004.4818
41.317616 90.344299 -1000.6132
42.170135 93.611214 -1001.0682
40.504452 90.176003 -996.2439
43.25135 96.911888 -1000.9126
49.612141 98.435669 -1008.1483
47.685764 98.669754 -1006.1291
