# .PCD v0.7 - Point Cloud Data file format
VERSION 0.7
FIELDS x y z
SIZE 4 4 4
TYPE F F F
COUNT 1 1 1
WIDTH 1538
HEIGHT 1
VIEWPOINT 0 0 0 1 0 0 0
POINTS 1538
DATA ascii
-62.299362 125.75314 -1001.1594
-58.905499 126.45634 -1000.3792
-63.135567 128.35965 -999.18585
-67.087608 122.53125 -1003.3492
-66.055733 120.19517 -1003.6342
-66.332535 129.54573 -998.72693
-76.464005 129.58427 -1000.4891
-71.50898 104.583 -1003.0161
-72.222679 102.19642 -1002.0038
-75.030396 101.70567 -1002.2747
-74.505478 99.789879 -1001.0765
-73.231758 97.82225 -999.53564
-71.252396 111.1194 -1004.7162
-68.956161 109.92959 -1004.0422
-66.678101 110.77471 -1003.6154
-65.727661 113.89747 -1003.7897
-70.898895 113.87556 -1004.8502
-68.773079 115.45179 -1004.4637
-85.500122 116.05031 -1004.4234
-87.378868 114.78616 -1002.9795
-89.126648 116.0005 -1000.9811
-90.79464 115.87484 -998.01251
-91.006325 112.0006 -996.45215
-88.974121 118.97952 -1001.2513
-88.927429 121.94864 -1001.0446
-90.339516 123.29418 -998.87347
-91.487999 121.35016 -996.91199
-89.280708 126.43765 -999.39471
-91.586388 118.54368 -996.64142
-87.294174 127.64072 -1000.6782
-88.182068 129.48375 -998.75781
-85.878548 126.21388 -1002.2253
-85.785477 131.99312 -998.16895
-82.800301 131.86844 -999.13458
-68.381775 120.55302 -1003.9645
-83.582275 114.43011 -1005.3011
30.235468 81.442764 -1024.9294
30.310539 80.930321 -1022.3876
30.033663 82.292442 -1019.6113
18.471994 39.464329 -1039.7479
13.005764 39.321609 -1039.525
-73.090439 120.55775 -1004.5768
20.893063 90.157051 -1032.8694
-17.329794 72.582397 -1005.9947
-43.638527 120.94534 -998.5105
-30.830256 141.6451 -987.56091
-11.727414 101.5615 -1018.1165
-11.932235 100.12878 -1019.797
10.056857 80.586197 -1048.491
-18.364128 71.956001 -1043.8086
-14.905837 74.618759 -1046.1836
-16.333813 133.45038 -989.47345
-17.940849 135.49777 -988.92645
-15.833696 135.62712 -988.42566
-20.507584 134.34875 -989.75708
32.957054 65.60659 -1042.824
33.019363 65.539833 -1046.9752
34.252705 63.233906 -1051.2167
32.35928 65.980087 -1054.0469
34.126019 62.269753 -1047.6245
34.377178 59.535599 -1045.5844
33.939919 57.858002 -1043.1953
34.013744 54.91629 -1042.7627
32.906128 53.192276 -1040.5691
32.546318 50.168934 -1040.731
30.478287 48.325047 -1039.0232
30.197872 45.609837 -1040.1777
26.676714 43.070488 -1039.2836
35.679665 53.009502 -1045.2632
36.792522 49.819893 -1045.474
37.046429 54.174488 -1047.6283
39.062428 56.447948 -1051.5847
42.949814 54.26445 -1052.4495
43.995483 50.477028 -1049.929
46.294571 47.253071 -1048.5306
49.576813 44.588257 -1047.6161
33.750694 48.420845 -1042.4462
24.171005 40.042412 -1040.5311
28.147272 40.694614 -1041.5376
53.400368 42.645531 -1047.2123
57.578953 44.042534 -1048.4478
56.424809 39.451889 -1046.4978
48.424545 40.862495 -1045.8707
37.939671 51.504513 -1047.1421
40.544529 49.831001 -1048.0806
61.195274 44.16861 -1049.1838
63.863594 46.914482 -1051.5901
69.393532 46.869354 -1052.8367
63.027401 40.928169 -1047.4648
67.027397 40.16819 -1047.592
69.494003 42.783161 -1049.9225
71.692413 40.03326 -1048.4586
76.278275 40.335548 -1049.5485
73.772217 37.11348 -1046.7776
71.114906 34.396347 -1044.4656
77.180748 43.196285 -1051.8618
74.264664 46.246777 -1053.6139
75.472168 34.390694 -1045.3073
78.039658 31.40938 -1044.6622
78.60453 34.003765 -1046.131
80.483604 35.677502 -1047.8594
79.019852 38.811134 -1049.0173
25.078556 45.331982 -1036.2021
21.249538 44.817535 -1034.4692
18.505314 46.585056 -1031.3082
22.064507 47.845833 -1031.1489
83.162224 33.998402 -1049.0687
84.009323 31.151869 -1049.0432
82.190361 29.580946 -1046.7231
37.509109 60.108097 -1053.757
70.40097 31.670603 -1042.8457
72.313217 28.560036 -1041.8617
69.189667 28.576361 -1041.483
27.344673 105.1301 -963.15942
29.017082 105.69266 -964.99438
30.470985 106.00683 -967.51288
28.163143 105.13895 -967.44855
7.7648444 93.097778 -1032.5458
8.4135227 94.922981 -1030.2922
21.314686 39.421906 -1040.2988
19.879597 36.568592 -1042.3755
20.176373 41.215702 -1038.2865
16.231676 41.380646 -1037.3271
12.970037 42.657803 -1035.6659
11.883755 45.101688 -1032.48
10.949816 40.826187 -1037.8848
6.1244683 41.574577 -1037.3143
5.0044503 44.239445 -1033.8694
10.433809 46.832642 -1030.0621
12.851536 49.02911 -1027.2484
21.967024 35.204414 -1043.3851
18.187325 32.717361 -1044.7239
12.982283 31.357012 -1045.8778
25.989845 33.482544 -1044.2373
26.177937 28.835098 -1045.4695
9.7038698 35.086571 -1043.8429
28.115295 25.211388 -1045.7156
32.237343 25.872662 -1045.2095
26.409355 21.147636 -1046.2153
34.582146 22.090174 -1045.0811
39.010586 21.856981 -1044.4454
22.563461 21.20965 -1046.8442
20.562368 17.619118 -1047.5215
22.194965 13.972715 -1047.7532
19.907177 10.169731 -1049.3243
21.525673 6.2899027 -1052.2579
26.872681 12.792551 -1047.4226
28.885132 8.8251905 -1049.2795
31.900942 8.1531076 -1056.599
36.96384 8.9857464 -1055.4966
42.610916 8.3146515 -1052.4078
40.265961 18.406128 -1044.451
38.682209 14.713035 -1045.3938
39.941448 9.5055561 -1048.1824
34.37109 14.756349 -1045.9741
32.356731 18.637257 -1045.6051
28.499201 18.412031 -1046.0951
36.556507 11.348254 -1047.0983
36.967274 8.2225971 -1049.9241
44.190102 10.047673 -1047.177
46.581856 12.894316 -1045.0701
49.845036 15.350002 -1043.6091
50.935116 11.252839 -1045.5867
53.134426 17.309645 -1042.7942
56.375156 15.351217 -1042.8063
15.824462 11.253778 -1049.4036
12.464486 8.2964354 -1051.6024
13.408354 14.89118 -1048.9182
9.2835598 16.342649 -1049.4391
5.9985709 14.125541 -1050.371
1.929266 18.304249 -1050.7408
-3.7093768 15.186507 -1053.8978
-3.6048372 22.005844 -1052.7504
7.064466 9.9659748 -1051.7517
3.0160813 8.5514078 -1053.2563
-2.0151198 9.9259729 -1054.6384
2.9913497 4.5262122 -1056.7333
7.4718928 5.7267203 -1060.7539
-6.4355574 27.301085 -1053.7627
1.3670323 23.465527 -1050.5823
4.9902558 26.724066 -1049.0521
2.448488 30.981432 -1047.7821
-2.4483843 32.590607 -1048.2708
-1.4063616 5.6873126 -1057.4819
-2.5122423 7.746963 -1063.8259
51.826931 9.3592377 -1047.978
50.472713 10.487253 -1052.976
53.171211 9.2813387 -1050.6991
26.070883 6.4924545 -1052.2096
32.278702 11.44236 -1047.4155
29.504845 11.702513 -1047.5626
20.638367 24.001627 -1046.8776
21.562136 28.267521 -1046.0449
17.544247 24.773504 -1047.2148
15.243542 21.242104 -1048.0497
13.972218 25.473366 -1047.6437
12.096514 28.481466 -1047.184
9.3972454 28.216803 -1047.7306
15.699942 18.062897 -1048.241
8.1707706 25.660534 -1048.6675
9.3495312 21.613087 -1049.0006
12.411698 69.475563 -1001.3925
14.959863 69.64447 -1001.7891
16.845816 71.359016 -1000.3982
20.67271 42.971561 -1036.485
-38.075775 151.69839 -942.57544
-41.030716 150.55725 -946.06824
-43.778587 145.84636 -944.75775
-44.677757 149.38358 -948.08295
38.899181 48.486568 -1046.5684
39.555012 45.735291 -1045.9597
42.209492 44.511898 -1046.3459
44.102402 46.247849 -1047.5283
43.345448 48.542831 -1048.5077
23.604328 69.000992 -1008.6837
-83.133018 85.716682 -974.1795
-83.746849 86.204987 -971.21466
-86.630783 88.039856 -967.84009
-83.523804 87.008568 -968.32434
-90.050987 89.585091 -971.33771
-80.619537 87.309364 -967.16309
-78.104683 89.124756 -963.10876
-85.804329 87.023911 -970.08447
-88.200272 88.253212 -970.02148
-90.071762 90.195122 -968.47675
-88.26963 87.914986 -972.62756
-89.993698 89.451653 -974.01544
-91.621834 91.618752 -972.74908
-92.951698 94.562424 -973.21802
-91.073959 91.040375 -975.68658
-91.064232 91.651016 -978.34814
-91.738808 94.023209 -980.24554
-90.777214 93.256996 -983.03381
-90.151199 94.109619 -986.12634
-88.024544 87.721527 -975.13025
-91.765808 92.570053 -968.01398
-91.637062 94.846603 -964.69385
-86.80806 94.465286 -960.87378
-90.352943 97.861359 -961.66565
-93.23291 95.431252 -968.229
-88.860718 92.685883 -987.6593
-87.563622 90.512024 -986.93738
-87.699051 89.341858 -984.20624
-89.597809 89.715714 -979.11731
-88.426003 89.085075 -981.54272
-89.436539 90.842827 -983.06372
-89.479118 93.794617 -963.1402
-86.397842 91.208824 -962.54242
-83.050034 91.381622 -960.61011
-79.641304 91.234802 -959.89313
-77.249977 93.08065 -957.57416
-78.193016 96.604744 -954.52551
-83.477531 98.051674 -955.68445
-74.696663 99.357765 -951.71094
-75.961685 90.744759 -960.33771
-72.688789 91.568977 -959.08325
-84.611404 102.93841 -953.12
-81.057732 106.59441 -950.12646
-70.384262 93.314415 -956.4436
-72.312485 95.743599 -954.28595
-76.711754 103.85666 -949.57788
108.61669 148.46906 -928.60901
-59.130989 91.176666 -959.48395
-60.90332 92.314407 -955.45892
-63.722084 92.649117 -955.46783
-64.777382 94.475403 -953.45087
-63.368034 96.466072 -951.005
-61.200985 97.833466 -949.21887
-57.204342 100.90238 -945.74567
-60.841682 100.58636 -946.83588
-56.911991 105.91504 -942.34845
-66.224213 97.830032 -950.54596
-69.459061 100.11949 -949.80841
-72.760628 102.18063 -949.43982
-67.645973 95.468079 -953.28833
-65.736137 91.845161 -957.45544
-65.180817 90.847725 -960.10785
-66.150566 101.06835 -948.11511
-66.050613 105.05264 -945.90948
-64.59227 108.1064 -944.18738
-60.753277 107.39789 -942.91248
-58.783146 110.27782 -941.08337
-60.632298 114.65256 -939.39569
-56.613979 117.98973 -936.49292
-62.265503 90.835777 -960.94855
-66.461395 90.344765 -962.6767
-72.788582 105.44839 -947.87415
-69.024719 106.92719 -946.25543
-71.801239 109.669 -946.2262
-71.2967 112.09438 -945.40936
-71.282623 116.41888 -943.44098
-68.022247 113.13268 -943.67841
-65.135628 113.03187 -942.41461
-63.583786 115.7301 -940.01703
-66.158485 119.76686 -939.53082
-73.774254 111.27145 -946.41986
-77.419098 113.28516 -947.42877
-78.307533 110.07159 -948.23547
-70.020187 118.89365 -941.72357
-64.438187 123.31791 -938.83301
-60.232868 123.97215 -937.41498
-57.744476 128.28542 -938.59985
-56.595596 108.53017 -941.02289
-52.088017 105.95495 -940.91754
-52.739983 109.64986 -939.35864
-53.06443 113.31439 -937.9295
-48.324684 113.1524 -936.7276
-43.696297 111.29134 -936.35175
-48.00531 103.66912 -941.27417
-40.10968 113.84583 -934.3501
-43.128613 106.69238 -938.23706
-46.693298 116.73483 -934.44696
-46.241589 120.54546 -932.18732
-44.218109 125.12899 -930.62201
-50.940063 120.50515 -933.63586
-52.917503 124.69717 -934.32288
-50.019012 128.36011 -934.59644
-54.391785 127.46597 -936.48438
-48.591549 131.18454 -935.96533
-49.748318 134.01747 -938.92133
-46.544437 137.62788 -940.01257
-53.691818 133.83469 -941.05823
-55.219021 136.2448 -943.80933
-52.51144 139.76118 -945.10913
-48.258572 140.97043 -943.58716
-53.582367 142.66525 -948.08289
-57.519836 142.93277 -949.88239
-61.724598 143.69769 -950.86865
-60.273476 140.21712 -947.87079
-47.592064 99.963623 -944.80164
-59.033379 137.77592 -945.94745
-61.227287 134.53554 -943.5636
-61.508583 131.09834 -941.23621
-38.483406 105.28418 -938.43811
-35.873489 111.92466 -933.98956
12.280675 81.092056 -987.10834
9.7571526 110.053 -929.29242
9.9308529 111.21875 -927.66693
10.972845 112.27032 -925.99243
11.067241 113.9411 -924.13672
8.8791122 113.67877 -925.05853
6.2635069 113.78832 -925.20081
2.2833374 113.50644 -925.64209
1.1018072 110.96409 -928.63434
29.869528 61.879017 -1026.3151
28.428484 60.448452 -1024.5013
27.248522 57.806446 -1025.2385
24.054489 57.021465 -1022.2251
26.677227 55.430302 -1027.0144
26.912771 53.48267 -1029.426
25.158615 53.389927 -1027.3557
22.859058 53.04977 -1025.5873
22.833118 54.692509 -1023.7434
20.546209 53.835663 -1023.2338
18.221226 52.884602 -1023.3882
15.917316 52.185631 -1023.6594
13.486614 51.571217 -1024.0873
19.05088 54.697037 -1021.5771
17.487936 55.836872 -1019.6863
20.158848 56.406647 -1020.1367
22.473032 57.574284 -1020.2883
17.951502 51.27969 -1025.1992
17.442205 49.556591 -1027.1647
17.042339 47.889111 -1029.2786
19.571484 50.56905 -1026.5803
21.61998 50.29446 -1027.9332
23.369925 49.816837 -1029.6952
24.523857 48.97057 -1031.6489
26.50675 49.357712 -1033.3586
25.276295 51.379147 -1029.7043
26.724613 47.497021 -1035.5112
15.214693 48.913956 -1027.6184
10.945908 51.65992 -1023.8198
9.955761 53.060852 -1022.0142
11.355477 54.4417 -1020.3165
10.038421 55.932419 -1018.3331
14.226968 54.509285 -1020.5333
11.482856 57.372143 -1016.5412
14.358556 57.26915 -1017.0641
17.052546 57.668896 -1017.2323
19.182648 59.194492 -1016.2502
7.5203109 53.043434 -1022.0439
5.8484802 54.517624 -1020.1583
1.4574995 54.664616 -1020.364
5.6991048 51.790359 -1023.7769
4.0677471 50.585022 -1025.519
1.0046943 51.161133 -1025.1984
6.9115396 50.424431 -1025.472
0.52722001 52.995373 -1022.7965
28.395983 51.35952 -1033.8396
28.624443 53.458153 -1032.0801
7.3128681 55.821041 -1018.4198
9.4993992 50.294678 -1025.5493
11.620317 50.183418 -1025.715
13.900972 50.198795 -1025.8402
5.8505878 57.07095 -1016.7972
3.4218676 57.528923 -1016.3271
6.7134328 58.523888 -1014.9014
5.7717261 60.00872 -1013.0035
3.1197503 60.666042 -1012.2812
1.1585337 62.183559 -1010.5122
6.2684517 61.40448 -1011.1584
4.0749555 62.131634 -1010.2625
9.2381544 58.559284 -1014.9021
1.9094446 56.238052 -1018.1743
-0.91602653 56.325157 -1018.5532
-3.8819525 57.627502 -1017.5664
-6.7903595 56.406342 -1020.1443
1.955394 58.92297 -1014.6705
-0.49812707 59.244076 -1014.6516
-2.5138705 60.509945 -1013.4317
-2.1761179 58.352135 -1016.1741
-1.2591776 61.881069 -1011.3608
8.7401009 62.107967 -1010.3015
9.1271296 63.742294 -1008.2177
6.8914189 64.570564 -1007.0328
-5.4151917 54.07798 -1022.8787
-10.493023 56.757187 -1021.2522
-12.404689 55.034561 -1025.33
11.796894 63.602684 -1008.6854
13.706795 64.82724 -1007.4891
12.798068 66.346161 -1005.4214
10.523421 66.679749 -1004.6376
12.71824 67.978043 -1003.3539
8.8192997 65.475304 -1006.0064
8.4860029 67.278915 -1003.7068
6.1606822 67.731514 -1003.0484
4.3797612 66.84185 -1004.1885
-1.3378632 52.096321 -1024.4006
-2.2628632 53.797962 -1022.2932
21.493021 51.578949 -1026.3381
21.390083 59.003765 -1017.8575
21.252771 48.892807 -1029.4366
19.592793 47.708916 -1030.1744
-34.485092 145.91251 -984.43201
22.865088 44.080849 -1036.1488
23.471451 45.795372 -1034.5348
22.099422 46.592903 -1032.7189
19.983671 45.799747 -1032.7664
19.176332 44.078098 -1034.6688
18.162565 42.549839 -1036.2615
17.691612 45.151211 -1032.9642
14.621011 45.229256 -1032.4482
16.205227 46.181545 -1031.3588
42.52816 113.52572 -974.44885
50.209435 174.6564 -944.14917
48.208847 175.40562 -941.49744
1.7916137 164.4516 -928.80084
2.40063 80.46254 -1048.3062
2.4361119 78.4459 -1050.8466
-0.647596 75.161827 -1054.3458
-4.4200597 76.130478 -1052.1609
-8.2467527 73.893105 -1052.8075
-8.2884293 82.718704 -985.97955
-84.490547 128.20528 -1001.6448
-81.773811 128.65096 -1001.7699
-80.242599 126.69677 -1002.8975
-78.827698 128.78799 -1001.4258
-83.01915 130.19031 -1000.4978
43.40033 162.55782 -908.72302
44.768143 164.81026 -909.80524
46.629002 166.90242 -910.97003
47.293781 165.33252 -909.37103
42.060944 164.08546 -910.12811
39.487194 163.6277 -910.66437
40.992474 165.68811 -911.88562
38.229988 161.65753 -909.7428
42.161022 167.395 -913.29926
44.523766 168.59508 -913.9079
39.789322 159.87309 -908.33246
39.126625 157.46451 -907.44012
40.735771 155.66412 -906.18335
48.861691 167.97911 -911.27747
50.353889 170.47491 -914.05536
36.971832 156.76318 -907.75146
35.04266 158.19351 -908.98425
35.980564 160.54742 -909.84094
35.118305 162.1295 -911.18225
34.788624 164.25139 -913.14447
42.993954 156.64578 -905.95081
37.048405 165.43869 -913.25116
9.7896652 133.20639 -911.12299
45.979645 175.19836 -941.97327
44.734509 174.54832 -944.23151
42.405624 174.30591 -944.43146
46.053078 173.84988 -946.25781
48.499451 173.85538 -946.17126
45.397102 172.84468 -948.38379
43.17786 172.50638 -948.99622
42.045475 171.49727 -950.96576
41.151409 170.30194 -953.1745
40.623219 172.29926 -949.35931
38.29195 172.17352 -949.73871
36.433792 171.54115 -951.5874
33.08102 172.24635 -950.66553
28.780935 172.57016 -950.38623
24.553843 172.74553 -948.98462
21.748531 172.993 -946.13324
22.280512 173.55115 -941.66498
41.626057 173.12733 -947.45886
38.450283 170.4386 -953.38629
37.379166 169.25482 -955.69373
38.405025 167.5087 -957.90662
34.783844 169.4903 -956.1579
31.943239 169.9939 -956.17133
29.209391 170.47881 -955.79413
30.598036 168.9299 -958.33582
31.626789 167.44327 -960.3645
34.005402 165.00664 -962.72522
40.433208 165.83978 -959.24341
39.835945 163.41229 -962.10321
26.17503 170.48399 -955.95923
34.417461 166.95387 -960.19873
28.943861 167.43866 -960.8822
35.958031 168.22758 -957.78088
42.745628 162.30563 -961.92426
31.721815 163.53584 -964.84741
34.139606 171.39488 -952.57135
38.28886 162.15309 -963.95642
37.041904 160.39941 -965.85059
34.621105 160.14871 -966.75446
36.748859 163.89262 -962.92786
-6.5110149 132.28369 -988.04584
-4.3160858 133.52161 -986.99951
-1.6854461 132.02086 -987.36353
-29.436098 98.513397 -946.61139
58.645443 144.77528 -962.20166
-56.426273 90.31324 -964.9267
-53.144451 91.029251 -963.55914
-49.195198 92.060883 -961.80994
-52.803921 91.919144 -959.15936
-46.499535 92.961601 -958.88287
-47.534836 93.205643 -954.77997
-52.099407 93.764145 -952.95685
-48.611958 95.00692 -951.27777
-45.837978 96.815674 -948.82794
-42.166714 96.426369 -949.48761
-38.58387 97.753525 -947.38037
-53.855785 92.022484 -956.84302
-56.638474 91.547844 -957.87286
-43.418835 93.935921 -955.06805
-39.668064 94.703613 -955.47528
54.923275 30.01388 -1066.7772
51.943417 29.177149 -1066.3889
49.925987 30.851652 -1067.6914
49.637272 28.150602 -1065.8284
46.883347 24.525675 -1063.5732
42.372776 25.322155 -1064.9363
37.856735 21.484997 -1063.7535
47.746593 20.686563 -1060.8138
44.270931 17.242348 -1058.9716
39.210129 17.799696 -1060.7423
41.620846 29.104021 -1067.7045
37.236027 30.62793 -1070.3818
33.021648 26.905697 -1069.7012
46.782425 30.96685 -1068.0533
44.215393 30.116968 -1067.8119
43.65044 27.776646 -1066.3177
45.299511 26.210392 -1064.9562
44.250145 23.985886 -1063.6141
41.842186 23.081131 -1063.5344
40.736008 20.562393 -1062.1284
39.511875 24.374693 -1065.1339
36.037781 23.941776 -1066.2161
34.068264 19.89632 -1064.2864
30.171019 18.204525 -1064.7451
42.380562 19.020338 -1060.6312
45.321632 19.582846 -1060.4012
47.161606 17.67889 -1058.791
51.23872 19.391518 -1059.4922
50.725689 16.019939 -1057.1063
45.789974 22.227476 -1062.1517
48.271061 22.815891 -1062.2242
49.723656 24.834185 -1063.5112
52.789543 24.207125 -1062.8267
55.597324 23.192879 -1061.8135
50.41457 21.38797 -1061.02
28.161449 15.213085 -1063.2522
28.855137 11.825213 -1060.3927
41.514412 16.670561 -1059.2499
43.059433 14.661309 -1057.595
43.393604 11.887061 -1055.9889
47.150723 10.086465 -1053.536
45.800114 15.449936 -1057.506
39.001347 15.416389 -1059.2072
37.478619 12.723765 -1058.0092
36.206242 16.381115 -1060.8932
33.938084 10.117487 -1057.4243
36.726707 18.693111 -1062.2877
34.40617 13.113649 -1059.3792
31.559332 13.08595 -1060.4294
39.984749 8.9138422 -1054.4915
29.990618 9.8269053 -1058.6008
45.358002 13.083899 -1056.1764
48.111126 26.49649 -1064.7905
28.598879 7.7816386 -1057.0876
29.373213 6.5545931 -1052.2688
25.524595 6.2811365 -1055.7465
23.434275 6.890162 -1057.6499
23.161594 10.357845 -1060.7422
20.687708 12.461696 -1063.0162
19.765995 5.1572185 -1055.8842
53.968472 26.116869 -1064.0769
41.522484 27.13538 -1066.3832
39.440109 28.034143 -1067.6766
39.518173 30.305277 -1069.2035
39.931046 32.687618 -1070.7059
37.362503 28.552511 -1068.8759
35.294716 26.921257 -1068.6323
32.907154 24.795023 -1068.2451
28.98205 24.320642 -1069.6499
24.240135 23.326431 -1070.7158
34.948013 28.929817 -1070.2565
31.447412 30.112572 -1072.8431
29.373522 32.765923 -1075.8151
26.669367 21.164333 -1068.2347
35.181274 31.542736 -1072.0249
37.310871 34.350658 -1072.952
35.833752 36.351112 -1075.1542
31.762857 36.587387 -1077.4414
31.981047 40.00515 -1079.7354
38.061352 38.199444 -1075.3817
38.716824 40.667595 -1076.8278
39.012779 44.725262 -1079.5613
35.542141 42.302059 -1079.4655
40.525314 39.417992 -1075.2654
42.61335 38.437469 -1073.9993
43.194702 40.459892 -1075.3292
44.541988 42.665638 -1076.6429
42.488281 44.348377 -1078.209
45.07225 47.244827 -1079.7987
47.522289 41.923931 -1075.8715
49.954559 43.426655 -1076.8308
50.707226 45.367588 -1078.2064
49.539654 47.510986 -1079.7299
47.088696 48.509411 -1080.495
44.586094 49.127213 -1081.1842
41.427181 51.306808 -1083.3972
38.406128 48.968029 -1082.7786
46.670391 50.457119 -1081.8977
48.873928 51.630524 -1082.6251
47.802879 53.602291 -1084.0636
45.200401 54.347065 -1084.7761
49.308369 55.321095 -1085.2056
51.152023 57.032303 -1086.3278
50.209015 59.229794 -1087.8235
53.079762 58.611195 -1087.4501
55.874516 57.75111 -1086.9077
58.596394 57.406761 -1086.635
60.93185 59.291656 -1087.9402
59.842815 63.096188 -1091.4313
49.481632 61.47681 -1089.6147
51.672382 63.230949 -1091.2817
47.470215 63.504208 -1091.8218
55.775646 62.089577 -1090.3423
46.651703 68.747215 -1092.1074
43.746216 69.412384 -1087.9783
55.095264 60.039631 -1088.5813
53.312634 65.810127 -1092.8999
54.689224 69.190392 -1092.0985
51.326897 51.438313 -1082.5203
54.466717 53.471054 -1083.954
44.803165 63.039398 -1091.692
36.669041 46.099548 -1081.502
51.976654 54.916119 -1084.9489
47.812664 59.453415 -1088.0463
46.190125 57.682529 -1086.959
44.278263 56.091114 -1086.126
41.844742 56.284531 -1086.7887
39.766209 54.674858 -1086.3215
37.298519 54.873394 -1087.4559
41.220356 58.188026 -1088.3173
40.257183 52.745399 -1084.7772
46.801903 55.784882 -1085.6219
36.812458 56.739723 -1088.9564
35.861061 58.542778 -1090.798
33.112106 58.333935 -1092.2233
35.612938 60.255337 -1092.6305
33.520729 60.564484 -1094.3827
37.976952 62.020737 -1093.193
37.833363 64.230202 -1094.8699
38.934143 68.089485 -1092.3362
40.172672 61.764496 -1091.9681
42.324821 63.064377 -1092.4723
38.932281 68.793137 -1089.3549
35.460472 53.174789 -1087.1628
35.094845 50.880402 -1085.6766
32.800201 49.450512 -1085.8948
29.869282 50.874821 -1088.6167
34.236637 54.616379 -1088.8051
31.658819 53.314808 -1089.3533
32.071712 55.709053 -1090.776
30.299473 56.713078 -1092.6393
28.060905 57.306835 -1094.484
26.037146 58.225903 -1096.5159
23.243715 57.27776 -1096.9362
21.615471 59.12875 -1099.0973
27.474581 55.122559 -1093.0137
27.379753 51.971806 -1090.7598
24.40416 53.44022 -1093.2919
23.088791 49.609623 -1091.0314
21.515505 54.936115 -1095.6973
18.565435 54.261951 -1096.2716
17.362968 51.030403 -1093.9733
12.998316 49.022495 -1093.2787
20.297752 49.346928 -1091.8481
16.283707 47.574764 -1091.5693
16.01775 43.967579 -1088.8654
15.867927 54.884499 -1097.6735
23.441011 47.137676 -1089.0688
26.235571 45.533607 -1086.6385
21.684164 43.590767 -1087.0608
38.548759 58.523045 -1089.5253
38.681679 51.089558 -1084.1864
40.477646 59.988201 -1089.9757
17.225904 57.368599 -1099.4718
16.208986 60.100185 -1100.9241
11.809422 62.747517 -1100.671
16.030975 64.353851 -1098.2949
8.6952972 64.295952 -1097.9215
8.4364176 64.926628 -1093.1888
5.5966201 64.554611 -1089.5419
7.2097883 64.058189 -1084.4539
0.99822581 63.195087 -1091.041
-2.6672497 61.005402 -1087.8788
-1.3837397 61.139366 -1082.375
-1.066202 61.490486 -1095.743
2.1718686 61.784313 -1100.0669
-2.0490019 57.177185 -1100.5278
-6.1956825 57.464485 -1089.575
-7.9356427 53.504162 -1093.5262
-4.533236 52.900101 -1098.5326
0.40591487 52.473721 -1098.8152
4.0724044 51.052925 -1096.5554
2.5543058 47.66293 -1094.037
5.4228325 45.350956 -1091.584
-0.21093076 44.969311 -1092.6724
7.7089667 51.886604 -1096.5808
11.650539 51.947102 -1095.9651
10.635056 57.490353 -1100.8604
6.6592956 57.14043 -1101.3207
35.519604 64.806999 -1095.6783
36.091579 67.842201 -1092.7197
34.038986 62.896191 -1095.7195
32.809513 65.420807 -1096.2024
29.957949 65.724602 -1096.6841
30.840191 67.329536 -1093.8521
33.83564 68.121117 -1091.5715
33.966228 68.422485 -1088.7455
29.400217 67.919304 -1090.8093
26.761213 67.64949 -1089.7772
23.947235 67.151451 -1088.2111
28.996387 67.850838 -1087.6375
30.787598 67.832756 -1085.1886
28.31382 67.458908 -1085.0355
26.051407 66.827644 -1083.5803
22.860933 66.284225 -1083.2892
20.960375 65.33522 -1079.2845
25.139273 65.474068 -1074.6879
16.291523 64.663002 -1078.4656
28.064207 66.702545 -1081.3446
27.695644 65.981178 -1077.8562
29.179819 65.710167 -1073.4729
33.003918 65.796837 -1071.5468
30.147543 66.510925 -1079.2261
33.725945 67.184097 -1080.1764
37.507839 66.017731 -1071.6147
42.833813 65.844673 -1069.9397
21.252396 66.783272 -1088.7545
35.172028 66.814911 -1077.7676
38.804176 67.451004 -1078.2301
36.028728 66.306076 -1074.2401
34.931763 67.911804 -1082.5424
37.700356 68.352188 -1082.7971
40.62756 68.835548 -1082.9934
43.615013 69.400116 -1083.9821
46.575451 69.24324 -1080.7465
42.868477 67.864883 -1077.2936
45.441998 67.148064 -1073.8434
39.435993 68.146957 -1080.6198
41.795639 69.306915 -1085.5375
41.607143 64.717712 -1093.5317
41.37141 67.827179 -1092.9
41.808506 68.976776 -1090.4115
44.359093 68.80397 -1091.0724
46.800491 69.497902 -1089.1274
49.212307 69.56086 -1090.4587
43.485859 65.028961 -1093.1293
45.80014 64.841133 -1092.9843
47.870434 65.810753 -1093.0719
48.570953 67.81562 -1092.7919
9.1266661 46.492744 -1091.8583
45.496632 59.532951 -1088.3636
42.953625 59.609894 -1088.9084
44.613808 61.200596 -1089.9464
36.321171 68.716263 -1087.5541
36.626339 68.584808 -1084.9945
50.73061 67.753799 -1092.634
51.988899 69.769592 -1090.9325
12.773782 53.861984 -1097.495
21.263123 41.173313 -1085.3359
23.27269 40.009647 -1083.7637
25.654556 38.201252 -1081.4989
26.738974 35.058784 -1078.7206
20.543934 38.928082 -1083.8475
18.044033 35.6605 -1081.9956
17.499798 38.187908 -1084.0742
14.434795 39.488197 -1085.7115
14.219151 41.893139 -1087.6084
12.098965 37.680099 -1084.6638
11.641367 42.648918 -1088.5878
22.732733 34.347481 -1079.6895
21.63636 31.965214 -1078.1667
11.259923 35.248493 -1082.8838
12.97114 33.378834 -1081.2002
8.715806 34.060963 -1082.3246
5.9341388 32.889572 -1081.8002
3.029578 31.723 -1081.3497
5.62677 30.62421 -1080.1022
8.2565374 29.413115 -1078.7675
0.51131117 32.57473 -1082.4556
-3.0207005 30.935986 -1082.0303
6.4526095 35.277302 -1083.566
4.2293878 36.582283 -1084.8987
1.6046969 37.510517 -1086.1161
6.8180137 37.717831 -1085.4088
6.9397364 40.18951 -1087.3479
9.4482918 38.571148 -1085.7223
4.4594522 41.181038 -1088.5165
1.8381102 40.425442 -1088.4254
-0.82126564 41.758572 -1090.2306
-5.1371913 39.345627 -1089.3528
-11.671873 38.417622 -1089.5204
-8.598196 41.596764 -1091.8516
7.1985035 27.436804 -1077.3511
8.2146225 25.011074 -1075.2266
3.5382359 25.162529 -1076.1205
1.637941 35.619064 -1084.6167
2.6244724 22.946243 -1074.5261
-0.22220406 21.997623 -1074.3409
2.02107 20.52504 -1072.7397
4.4139562 19.107441 -1071.2147
6.7904177 17.789455 -1069.8156
10.053514 15.24522 -1067.3407
11.756592 11.940628 -1064.5511
1.6362929 18.047426 -1070.9708
-2.1440818 15.934887 -1070.1832
0.88111347 15.694799 -1069.3761
3.6286039 13.461253 -1067.1545
4.0797873 9.6855421 -1064.265
-6.429162 12.853831 -1067.8055
-8.0876236 13.256817 -1062.5394
-9.217206 17.722778 -1061.3521
-10.251379 22.38405 -1061.1261
-7.0989232 15.469428 -1057.8408
-8.6135035 24.715277 -1057.2905
7.3889661 20.030197 -1071.4176
6.2307091 15.454515 -1068.1584
-11.713515 20.312666 -1064.7639
-15.457811 22.133297 -1068.4313
-12.794862 18.165459 -1069.0531
-16.133493 26.772146 -1067.2037
15.795593 34.068535 -1081.2329
-1.97119 24.024174 -1076.3044
-1.2973387 26.300646 -1077.9633
-4.6405287 24.64636 -1077.4547
-10.059969 23.677759 -1077.5845
-7.5645776 25.716459 -1078.8822
-7.6725926 28.502691 -1081.1787
-11.390939 31.750095 -1082.7894
-16.081411 31.818653 -1081.2267
-19.467236 35.279171 -1082.9438
-17.946476 38.311962 -1088.224
-17.218695 23.08041 -1076.436
-9.6961031 34.75256 -1086.1447
-19.29822 28.895485 -1078.6202
-20.616825 30.839798 -1073.7849
-18.383003 31.54999 -1069.5402
1.3797388 27.116508 -1078.046
-3.0470486 20.462057 -1073.8136
-6.2080221 19.770542 -1074.0044
-9.3784733 18.784845 -1073.7914
-3.465153 18.184734 -1072.2408
-8.4837999 21.249273 -1075.5396
-5.0207071 16.078011 -1071.0624
-8.8339663 15.210277 -1069.5071
-18.79068 35.698093 -1073.608
-16.832796 39.871407 -1072.9053
-19.335222 38.77668 -1077.2332
-15.033911 40.516209 -1068.6187
-17.356716 42.174694 -1076.3894
-16.258938 44.773357 -1079.1202
-14.946587 46.698685 -1082.8909
-11.745613 49.465919 -1085.7244
-18.350357 43.665035 -1084.2145
-14.524582 45.776299 -1076.0464
-13.05135 47.385078 -1072.0656
-11.972019 49.480808 -1076.0605
-11.198593 50.715515 -1078.9601
-9.103014 53.888374 -1078.0281
-7.2344146 56.330738 -1080.8043
-8.880003 55.466999 -1074.1105
-7.3505011 58.433586 -1072.1622
-13.907551 45.071205 -1070.5211
-12.389281 49.144882 -1082.4386
-13.516394 47.918259 -1067.0247
-14.67871 47.268097 -1062.9982
-14.539454 42.715881 -1061.7499
-13.363611 50.526478 -1066.1896
-12.22259 53.93795 -1067.1516
-12.327561 57.120941 -1064.6627
-14.128819 58.662804 -1060.4287
-14.649228 50.383125 -1062.8982
-15.506054 53.275021 -1060.2294
-16.669634 51.059231 -1056.7715
-17.602764 53.467377 -1053.0221
-17.049423 49.077049 -1052.8829
-16.17074 46.650291 -1049.6421
-11.521307 52.358879 -1070.2612
-10.423805 58.20295 -1066.8177
-8.6804819 58.606781 -1069.2269
-8.8429651 60.348766 -1066.7162
-5.9342346 63.18475 -1066.1169
-9.2119579 62.663559 -1063.5811
-9.5138121 64.604034 -1061.3088
-11.298687 62.278275 -1061.5769
-4.0521274 65.111214 -1064.8086
-4.8488955 66.879875 -1062.2255
-3.9096417 70.093407 -1059.1312
-0.82753128 66.344543 -1064.6119
3.2402532 65.582733 -1067.1708
1.4197829 67.828705 -1063.2972
1.2846143 69.819878 -1060.8142
-0.35425103 71.309273 -1058.7676
0.99111354 73.792442 -1056.1871
5.1093316 73.887451 -1056.5809
8.7068052 75.4888 -1054.8445
7.3953805 71.407013 -1059.7471
4.7477822 70.163353 -1060.9983
7.3140612 69.761925 -1061.8104
7.9212041 67.486 -1065.0769
11.095692 67.180252 -1066.001
13.829947 67.914131 -1064.8539
13.768314 70.224716 -1061.3961
17.157566 70.875938 -1060.1675
21.421917 69.851921 -1060.6056
15.367458 73.117897 -1057.4789
12.349403 74.577934 -1055.8684
11.608269 65.877464 -1068.7697
8.7431965 64.476761 -1071.9133
13.883509 65.384895 -1070.6873
13.111162 64.565376 -1073.8627
17.52203 65.659264 -1070.1021
22.000128 65.468628 -1071.3624
13.295879 64.251724 -1078.5283
9.3594971 63.730068 -1080.4752
16.181408 67.386215 -1065.6914
19.167814 67.969055 -1064.3436
-3.9079797 62.722652 -1068.6647
-4.628355 61.281689 -1070.8312
-4.5694232 59.914841 -1074.8818
-0.93978173 61.378098 -1077.4341
-1.0108354 63.151409 -1070.1628
1.4033031 63.166172 -1071.9177
2.105582 64.205467 -1069.4774
3.0745223 62.890442 -1074.5919
6.4380183 63.255909 -1076.525
6.0232282 63.17416 -1080.3171
2.495697 62.542576 -1081.9778
4.6149783 64.840439 -1069.1119
6.0967112 66.14563 -1066.953
-4.3651772 59.333 -1079.6421
-11.986002 49.976463 -1071.8228
-14.112317 56.229622 -1062.032
-10.191221 66.46199 -1058.9686
-10.885703 68.223152 -1056.6809
-10.993396 71.150871 -1053.5619
-12.515617 66.095505 -1056.8269
-13.913847 63.68399 -1056.8959
-15.686193 59.45261 -1056.7373
-7.5854673 71.373024 -1056.0999
-13.44591 70.966164 -1050.9684
-14.506609 65.348793 -1054.6952
-16.755991 65.061073 -1051.0352
-17.091808 58.664921 -1053.7676
-18.075638 60.451283 -1050.4633
-19.321535 59.37746 -1046.6542
-15.023272 68.070091 -1051.6031
-7.5791163 66.570107 -1060.9348
22.018469 66.81794 -1066.135
24.823633 66.403992 -1066.5648
28.926075 65.873154 -1067.3728
22.82476 65.935455 -1068.8993
27.166138 66.890663 -1063.4196
28.243217 67.266052 -1060.932
30.983051 66.011024 -1060.9187
32.944283 65.273132 -1063.2184
33.501106 64.954582 -1060.2454
33.862427 64.533791 -1057.645
35.950592 63.630611 -1059.26
38.327477 62.30257 -1058.6292
37.969994 61.24646 -1056.225
35.600407 62.196644 -1053.8168
38.096401 63.363789 -1061.0062
38.640816 64.582283 -1065.2183
40.699558 63.466137 -1062.8154
43.16555 62.725681 -1062.1099
47.131401 63.035351 -1063.4803
48.514126 64.78878 -1067.121
53.447529 65.682884 -1069.1819
40.69754 60.952808 -1058.1743
43.547344 59.761879 -1057.9742
47.122417 57.461605 -1056.7395
50.636993 59.35371 -1059.276
43.949436 57.659962 -1055.9933
41.618881 57.027004 -1054.2008
43.037098 61.341751 -1059.8093
49.434559 55.842773 -1055.7607
49.546646 53.402931 -1053.6874
51.546158 54.302227 -1054.7957
55.710602 54.388721 -1055.5537
56.703453 57.250492 -1058.411
58.075573 52.004971 -1054.0159
62.293049 52.703964 -1055.516
60.980801 49.549183 -1052.8206
59.541931 58.168083 -1060.0293
60.127224 61.37888 -1063.4072
51.94936 51.861019 -1052.863
52.740608 49.498516 -1051.2256
50.02169 47.5951 -1049.4459
56.591839 48.640465 -1051.2791
49.835945 61.484638 -1061.5588
53.371895 61.345806 -1062.1089
56.46188 62.377579 -1064.0563
25.59244 68.309471 -1061.1432
23.954309 70.049057 -1059.1005
54.406471 64.160316 -1066.4817
34.083515 64.119659 -1055.173
31.5103 65.618088 -1066.2672
31.08569 65.6689 -1069.0903
28.326838 65.724266 -1070.0837
26.451374 65.585838 -1071.8622
51.759594 67.363647 -1073.0967
46.75729 52.398613 -1052.2498
9.7174683 70.661186 -1060.8156
30.487278 65.699661 -1071.4493
31.603859 65.883507 -1073.8406
30.395052 66.027618 -1076.2668
-7.3751893 23.531824 -1077.2053
10.601199 30.593849 -1079.3491
11.799276 28.845922 -1077.7535
12.652085 26.923683 -1076.0453
14.704544 28.748316 -1077.1854
17.613266 28.784548 -1076.6584
13.54558 24.827137 -1074.2166
14.442977 22.717386 -1072.3975
16.510481 24.712652 -1073.6306
12.250416 20.906158 -1071.3229
19.108921 26.399521 -1074.488
23.211281 26.655916 -1073.6278
13.220302 19.155891 -1069.7952
15.988714 18.353271 -1068.6766
17.625616 16.358225 -1066.8226
17.475845 13.750572 -1064.787
14.323489 13.367332 -1065.134
20.154354 17.616043 -1067.3005
22.713398 16.778677 -1066.0398
24.093985 19.524374 -1067.8016
16.255928 30.602205 -1078.381
18.091911 20.279636 -1069.8287
19.849741 22.03285 -1070.897
17.243105 22.400846 -1071.6913
24.180185 28.805178 -1074.9456
21.837135 23.716253 -1071.7531
24.48724 15.448131 -1064.5426
22.361879 21.675354 -1069.9891
24.564417 21.476315 -1069.1736
26.629614 23.16254 -1069.7504
26.08556 25.028854 -1071.3623
25.391035 26.945972 -1073.0969
26.74773 28.91268 -1074.0592
26.491512 30.969212 -1075.7192
28.900137 30.638897 -1074.4363
31.424875 31.948257 -1074.2062
31.695156 34.208462 -1075.7542
27.075064 33.073341 -1077.0734
29.192911 34.792332 -1077.4166
11.491788 17.242773 -1068.621
22.494051 14.320607 -1064.1418
-5.8896918 68.480827 -1059.969
-6.4549212 70.18895 -1057.9575
10.79189 32.629982 -1080.9292
53.249859 68.952194 -1076.8159
8.9330044 16.855652 -1068.754
-1.6061779 73.283653 -1056.2771
-3.0423548 74.684578 -1054.3472
-5.3970814 74.471207 -1053.7705
-6.9182467 75.33503 -1051.9138
-9.3354177 75.151161 -1050.3064
-10.820245 76.005653 -1048.1658
-6.1906309 76.946609 -1050.2258
-5.3386278 79.01638 -1048.0271
-3.5852485 77.786964 -1050.3674
-1.9481055 76.635971 -1052.2911
-7.0150094 73.027679 -1054.6379
0.4900451 77.102745 -1052.2357
1.6660182 75.515862 -1054.2915
-9.0691156 72.135818 -1054.2412
-10.185782 73.093697 -1052.1268
-11.935794 71.939873 -1051.7013
-13.000595 69.768745 -1052.7318
-7.5992341 79.36116 -1046.4127
-8.1883535 80.976143 -1044.288
-5.719614 82.881348 -1043.0302
-10.755696 81.23243 -1042.7568
-12.952219 79.730385 -1042.8987
-13.300581 77.361206 -1045.021
-15.456722 79.208984 -1041.0961
-16.461025 80.121017 -1038.683
-17.515198 77.774162 -1039.6604
-17.507795 81.975578 -1034.9709
-19.704784 79.767967 -1032.9664
-20.590731 76.206429 -1033.8804
-18.364408 75.311508 -1040.7242
-19.147373 75.934486 -1038.2875
-20.473433 74.043396 -1036.3236
-21.36252 69.428978 -1036.2504
-21.97945 68.225388 -1031.111
-3.1473923 84.308998 -1042.1448
-3.5917222 82.491081 -1044.3046
-3.1930933 80.925262 -1046.47
-0.74942505 80.476112 -1047.7772
-1.8065979 85.952812 -1040.3755
0.82842463 87.089401 -1039.579
-21.313082 64.804169 -1037.2407
-21.342588 76.257751 -1031.2012
-1.2950339 83.454903 -1043.7902
1.3332993 83.687866 -1044.0562
3.4675047 84.773636 -1042.986
6.4837184 85.130714 -1042.7202
1.3895735 81.987175 -1046.2275
-17.404924 74.61824 -1043.1315
-16.670258 73.38105 -1045.2175
-15.705115 72.139015 -1047.4087
-17.436625 71.060829 -1046.0105
-19.10317 67.040169 -1045.6029
-19.021048 69.440308 -1044.3414
-19.768347 70.264465 -1041.9539
-19.966621 67.344437 -1043.1902
-20.599169 64.788765 -1041.8928
-19.977093 64.701149 -1044.2705
-20.771259 62.029114 -1040.4908
-20.337038 59.61721 -1041.4435
-19.777439 58.131104 -1043.7712
-19.072514 64.869835 -1046.566
-17.926384 66.718338 -1048.0271
-19.541245 62.40271 -1046.0092
-15.591971 75.838165 -1044.3292
-20.725044 69.69519 -1039.0204
-21.177629 67.536087 -1038.1023
-21.565685 66.914742 -1035.6595
-21.772242 68.952461 -1033.7595
-21.398195 71.703529 -1034.5712
-21.95104 70.663376 -1031.7068
-22.189812 70.209579 -1028.6185
-22.081741 72.44928 -1029.8329
-21.751942 66.422951 -1033.1854
-21.184675 64.256622 -1029.6222
-20.822592 71.603111 -1037.2753
-20.975813 65.781845 -1039.6227
-21.466846 64.577164 -1034.9098
-21.045376 62.139275 -1035.8003
-20.342417 60.297001 -1033.4658
-20.49605 61.607792 -1031.1201
-19.288122 59.105118 -1030.9705
-17.748547 57.886303 -1028.7631
-17.888817 56.710041 -1031.4186
-18.060881 55.637238 -1034.1912
-19.261431 56.748077 -1036.6626
-16.279709 53.297729 -1034.3961
-17.934141 59.584801 -1026.2357
-19.427774 62.227947 -1025.8964
-16.022936 58.708157 -1023.944
-15.647895 60.024441 -1021.4165
-18.195362 63.666592 -1020.6223
-14.389799 52.462715 -1032.3193
-13.940599 53.510345 -1029.7924
-12.408548 50.56139 -1032.7898
-12.043159 53.423061 -1027.6646
-9.5340586 51.895256 -1027.9718
-9.3620701 50.248894 -1030.2487
-16.093552 51.877872 -1036.894
-6.7907104 51.70837 -1026.7284
-20.180927 59.154644 -1035.8219
-17.295948 52.579582 -1038.9586
-18.717276 54.976498 -1039.0243
-16.367172 50.692192 -1040.1354
-16.565119 49.561981 -1043.3783
-18.711674 54.411446 -1041.5474
-18.387239 53.159344 -1043.8655
-18.168364 52.282059 -1046.4939
-18.20804 53.633293 -1049.8468
-17.388226 50.112442 -1046.2808
-16.83124 48.408508 -1047.9841
-17.156689 48.967976 -1050.356
-17.693981 51.354397 -1051.2505
-15.605232 46.308151 -1047.3657
-14.049038 44.567974 -1046.2445
-14.757442 44.316425 -1049.1725
-13.870363 42.149155 -1051.4037
-13.551135 45.422413 -1043.4126
-14.83145 47.446507 -1042.5282
-16.509449 47.110188 -1051.984
-16.357822 46.897709 -1054.4133
-15.603868 45.003307 -1056.8907
-16.719503 49.053669 -1055.4779
-17.231073 51.128136 -1054.1194
-15.496842 44.914425 -1051.3585
-16.983641 53.185112 -1055.641
-17.107674 55.690281 -1054.756
-16.126877 47.012371 -1056.7538
-16.420019 57.51952 -1056.0712
-15.339085 57.422161 -1058.7715
-17.733894 55.78006 -1052.5322
-14.622263 49.941963 -1037.3644
-12.739777 49.104782 -1035.6052
-10.676437 48.364948 -1034.1678
-8.5837193 46.628494 -1034.8843
-5.9983778 46.369286 -1033.6957
-3.9531844 44.78783 -1035.1008
-9.2641182 45.501049 -1037.2487
-13.063618 47.955498 -1038.0369
-13.496274 46.948421 -1040.5719
-11.460034 46.07391 -1038.8007
-9.5728626 44.16872 -1039.6685
-10.033292 43.032513 -1041.9775
-8.2649698 41.341347 -1042.7795
-8.324152 39.805683 -1045.0425
-5.7490196 40.858379 -1041.6791
-3.2723851 40.732803 -1040.6086
-0.15046908 38.664375 -1042.1475
-2.0314796 36.050583 -1045.4321
-0.60282069 40.708355 -1039.6925
1.3137738 41.981976 -1037.5359
3.1480107 42.622322 -1036.332
-5.3260288 42.221451 -1039.4806
-4.7799854 43.560669 -1037.2135
-5.1374354 47.655014 -1031.4934
-2.6970038 47.967129 -1030.2507
-7.3433208 43.869255 -1038.2394
-1.5863771 43.399345 -1036.2998
-1.5730104 44.894405 -1034.1483
0.81010228 45.286667 -1033.0442
3.3382275 45.54015 -1032.2766
4.1949539 46.974014 -1030.2289
-1.0049012 46.520329 -1031.7418
-19.272636 63.638477 -1023.181
-20.586035 64.943275 -1025.1976
-16.318043 53.258785 -1057.9708
-16.019903 51.358212 -1059.1041
-16.216467 49.407963 -1058.0881
-15.519902 49.486271 -1060.4938
-15.232893 47.514072 -1061.1604
-15.243564 45.216248 -1059.7979
-16.027277 55.624138 -1029.2776
-14.172633 54.992809 -1027.4403
-6.2940102 39.539192 -1043.7561
-4.4576912 37.398098 -1045.1815
-7.09272 48.940811 -1030.6667
-7.3249955 50.472343 -1028.6693
-13.658425 73.659805 -1048.1912
6.2965174 47.700283 -1029.0593
-13.783382 59.889091 -1019.3331
-11.653731 59.928631 -1017.5129
-11.771298 61.608112 -1015.2344
-14.076593 63.288952 -1014.8212
-16.021523 63.581017 -1016.8423
-16.12558 65.221092 -1014.6699
-18.180105 67.719582 -1014.423
-12.060498 63.316406 -1013.0064
-9.1365099 64.258492 -1010.1251
-12.005681 65.07988 -1010.5789
-14.305783 66.767509 -1010.2453
-9.4414635 60.341282 -1015.7839
-7.2082124 60.835308 -1014.2629
-7.1739368 62.530674 -1011.7986
-6.8556361 59.200138 -1016.3786
-15.897636 61.914898 -1019.062
-11.719951 58.352226 -1019.7089
-19.454796 67.974754 -1016.7798
-19.2913 66.475502 -1018.7346
-20.578135 68.071503 -1019.7292
-21.23538 68.057022 -1022.3752
-21.615658 70.068672 -1020.482
-20.673574 66.162781 -1023.4295
3.817667 81.764008 -1046.8114
6.2725501 82.352371 -1046.2134
4.8056664 80.587151 -1048.3716
4.7638583 79.057999 -1050.3048
7.4241023 78.453827 -1051.201
4.8873658 77.642174 -1052.0739
6.7629375 76.862061 -1053.1381
2.7305272 76.9188 -1052.7539
6.2470407 75.326782 -1054.9589
7.6148791 74.014191 -1056.5925
10.2133 74.016983 -1056.6132
8.9184284 72.604691 -1058.3339
-13.623067 42.703838 -1091.6016
42.171356 34.624737 -1071.3702
44.809566 34.626179 -1070.8799
47.802967 36.030754 -1071.5571
50.677036 35.449951 -1070.8737
5.9928017 63.588058 -1098.5322
9.8599014 44.487484 -1090.2054
51.2132 49.562435 -1081.1732
53.018711 48.669155 -1080.5299
55.216385 49.336933 -1080.9873
56.114632 51.496334 -1082.5107
58.942509 52.195206 -1082.8428
61.252937 49.093567 -1080.3048
54.410923 47.277309 -1079.4984
56.814495 47.874901 -1079.8302
59.23238 48.161369 -1079.8344
53.191521 45.668419 -1078.3468
55.022469 44.657051 -1077.5183
54.922337 42.880981 -1076.1602
52.679859 42.134689 -1075.735
51.960327 40.4603 -1074.4885
57.213242 44.698498 -1077.41
59.751995 44.37426 -1076.9504
62.748806 44.878033 -1077.0011
58.297512 46.225529 -1078.4762
50.264843 39.399097 -1073.814
51.335655 37.625118 -1072.3943
47.848427 39.687164 -1074.2372
53.150772 39.006577 -1073.2816
56.396053 41.55534 -1075.0332
56.517864 39.878094 -1073.7197
62.730049 47.156502 -1078.6748
65.462334 45.744808 -1077.2579
55.32539 38.489841 -1072.7299
56.279263 36.934883 -1071.5297
54.176754 35.564251 -1070.6956
46.87743 37.801365 -1072.9515
44.954681 38.650238 -1073.7456
10.489604 138.70462 -981.93884
11.193509 136.24734 -982.92847
-41.560024 94.569893 -953.54321
-37.954769 106.12556 -993.93726
87.829643 163.59077 -898.81354
56.96534 53.454811 -1083.8677
56.063931 55.50877 -1085.3613
35.697384 125.609 -910.89545
25.963888 173.96249 -941.08081
29.35326 173.9355 -943.34003
28.4335 173.30536 -947.30554
27.718744 174.00395 -937.79437
54.993179 143.79767 -963.75317
54.191479 141.81612 -964.02594
63.829491 35.851189 -1070.0299
25.550549 123.90929 -911.47083
24.231823 122.27033 -912.54071
21.770426 122.51987 -912.61163
20.746168 120.71285 -913.95032
18.462015 120.69686 -914.55682
16.850863 122.43755 -913.89252
19.996908 124.40524 -911.75958
20.774803 126.39259 -910.59534
17.414154 124.37283 -912.40149
14.78544 122.14393 -915.05524
14.210825 120.58234 -916.7337
15.623158 119.03212 -917.20081
17.626265 118.99835 -916.22546
18.684418 117.32064 -917.23718
18.030581 115.80846 -918.8609
21.019936 117.08464 -916.83777
22.531975 115.7221 -917.93408
22.269567 118.56062 -915.36047
24.6821 118.85851 -914.96735
21.97225 114.35702 -919.42206
19.70369 113.72514 -920.42651
12.970195 123.78668 -914.71082
13.242727 125.53 -913.20056
15.086227 126.24364 -912.04999
15.608277 128.45158 -910.78363
14.532867 131.01982 -910.15674
10.716097 123.81591 -915.92517
11.689142 127.14977 -912.72528
9.5869904 128.99098 -912.39868
9.6544571 126.99979 -913.6698
8.7461567 125.5584 -915.23816
6.5350003 126.05507 -915.62671
6.0911593 124.62771 -917.08527
5.0362315 127.45741 -914.97797
2.3218207 127.39694 -915.7229
6.4314113 128.92137 -913.49243
5.2593875 130.69675 -912.97644
10.129242 122.41531 -917.46295
11.950967 120.79531 -917.99316
10.971556 119.44968 -919.52875
12.315727 117.38136 -920.55707
8.7233067 119.34564 -920.32318
6.6450133 117.65359 -921.78101
6.7185397 121.10552 -919.55432
15.675474 133.69089 -909.59808
14.606959 136.05687 -910.15131
7.3339043 122.89638 -918.12164
4.0886717 124.43909 -917.76477
2.303961 125.71783 -917.08899
2.7889161 123.327 -918.8584
4.0160589 121.39417 -919.86932
14.613031 117.78889 -918.91266
1.6492811 129.34351 -914.55151
2.8085098 130.98206 -913.53534
19.887474 107.26509 -934.42218
45.058189 160.76321 -907.25873
47.130184 161.51823 -907.04523
48.044102 163.70396 -908.00922
50.325161 164.66176 -907.98114
48.758804 160.27094 -905.92151
50.875465 160.80569 -905.60236
52.368626 159.15077 -904.44006
51.575619 162.85345 -906.52472
53.619061 163.05722 -906.33154
-12.337065 42.752628 -1045.9044
-11.450416 40.901585 -1047.5452
-12.081796 40.215607 -1050.0859
-10.52792 37.863415 -1050.6451
-11.455718 36.564529 -1054.688
-10.308082 32.523472 -1056.4562
-12.603651 32.713051 -1061.5741
-8.4179192 36.675213 -1049.0887
-6.0655675 32.659206 -1050.4309
-12.085079 43.700924 -1043.7377
-95.002327 120.03554 -984.94781
28.048861 65.77858 -1075.8132
27.01919 65.596046 -1073.9783
92.449196 162.39246 -940.39642
86.158859 146.68872 -899.36743
88.389648 145.68468 -899.81512
52.150284 166.54784 -908.99554
4.7035213 63.78669 -1008.045
2.2846558 63.369545 -1008.7557
0.90299404 64.654472 -1007.2682
-1.2461612 65.390244 -1006.6805
-3.1670992 64.655846 -1008.0028
-4.7355051 63.660725 -1009.6643
-6.9219608 64.091278 -1009.6093
-8.1742058 65.692245 -1007.8135
-6.749599 66.773697 -1005.9921
-9.7636633 67.569778 -1005.9531
-4.6374846 67.735138 -1004.3473
-5.170814 69.250519 -1002.4805
-25.588417 136.741 -988.68597
41.890179 31.093609 -1069.0065
66.28849 121.44324 -935.79187
64.020752 120.31007 -936.35229
64.013893 120.98919 -938.9176
61.789223 119.98068 -939.71796
59.94136 118.76134 -938.75903
57.798336 117.64593 -937.87994
60.138317 118.44265 -936.36371
55.971493 116.7912 -936.40503
54.924126 116.41433 -933.91815
33.27351 165.29227 -915.05627
30.977373 164.76944 -915.73785
29.832466 163.06221 -914.50311
29.887283 165.88362 -917.44305
27.578979 165.66176 -917.91333
26.722322 164.22835 -916.56061
27.512304 162.98387 -915.13879
32.296337 163.83617 -914.06586
-13.390843 61.864868 -1059.1078
-90.27639 117.75861 -999.21753
-6.7283282 128.56439 -990.20337
-6.2109523 126.76815 -991.36145
-6.7791028 125.10267 -992.76422
-53.808922 120.57072 -934.61865
-1.8453336 50.793049 -1026.276
-2.4850821 49.356956 -1028.339
-4.5447288 50.575165 -1027.3706
-15.072462 95.580818 -963.11847
-17.281778 95.429062 -962.11389
-20.162865 95.052711 -962.08624
-14.76978 95.195763 -965.37384
-16.733538 94.666351 -967.03595
-16.067568 94.086143 -969.40869
-18.199354 93.327522 -972.3457
-14.216724 94.673035 -967.64264
-19.248766 94.540497 -966.35992
-21.160173 94.170059 -968.08276
-21.891237 93.761871 -971.01642
-23.126762 94.179878 -966.00464
-26.045109 93.816475 -966.65088
-28.154837 93.836899 -964.64172
-11.785195 94.583794 -968.17517
-10.9666 93.717697 -970.22858
-12.347248 92.246735 -973.71423
-7.6706033 91.119034 -974.31219
-12.091957 93.051964 -971.85596
-14.42049 93.27092 -971.74292
-7.3025303 89.505119 -976.66272
-4.7376642 88.521584 -977.32739
-6.2563257 86.931389 -979.81036
-2.3371658 89.48967 -975.87201
-29.344231 93.352463 -966.98077
-31.041054 93.106987 -969.77179
-32.814167 92.96682 -971.47186
-9.0216084 94.122505 -969.29669
-6.4980206 93.631165 -970.1424
-7.3555093 94.859657 -967.87714
-7.0199203 92.310623 -972.27362
-16.322727 95.868187 -960.01538
-14.77986 96.411331 -958.49554
-13.606258 96.986923 -956.76654
-14.438331 97.253883 -954.61743
-12.099272 97.581665 -955.25482
-9.6742191 97.776772 -956.69745
-17.304579 96.064392 -958.05157
-18.040087 96.408852 -955.70807
-19.54705 95.868248 -957.73535
-12.782866 96.624367 -959.34772
-10.336289 97.100021 -959.23511
-16.627939 97.02449 -953.81818
-17.859163 97.416542 -951.5448
-20.98765 97.191406 -951.15991
-15.783937 98.054855 -950.28754
-13.33604 98.484718 -949.99884
-15.518767 98.887566 -947.88135
-20.687082 95.398468 -959.74628
-8.4353371 98.404846 -954.4024
-8.9813566 98.793823 -951.71301
-22.396759 95.540665 -958.59924
-24.500906 95.427849 -959.34802
-23.750267 95.862144 -957.03955
-22.797329 96.223297 -955.02356
-24.957115 94.840767 -961.68109
-27.56469 94.623405 -962.29089
