# .PCD v0.7 - Point Cloud Data file format
VERSION 0.7
FIELDS x y z
SIZE 4 4 4
TYPE F F F
COUNT 1 1 1
WIDTH 1495
HEIGHT 1
VIEWPOINT 0 0 0 1 0 0 0
POINTS 1495
DATA ascii
0.90182561 -201.59816 -1028.1379
-0.62845963 -199.72847 -1028.7816
-13.225128 -141.99924 -940.68005
-59.43343 -154.12418 -889.93799
3.7001114 -166.02263 -1020.754
5.6675372 -164.61449 -1019.87
19.951422 -203.3186 -1020.3629
18.226484 -202.41772 -1019.0781
54.519077 -147.03607 -866.51123
-1.6437579 -174.10796 -905.35272
60.394535 -149.25803 -919.4856
61.685993 -149.21748 -917.44269
-60.158352 -134.30347 -903.13623
-60.833481 -133.51889 -905.52496
1.8966124 -168.82524 -933.4762
-75.023529 -143.02515 -911.92413
-75.674355 -144.83664 -913.89844
-75.88604 -148.39041 -914.46399
-75.739029 -151.10437 -914.74005
-75.770348 -149.7558 -912.3454
-75.589821 -148.43559 -910.05408
-75.214546 -146.43675 -908.31104
-74.343376 -144.73978 -906.36658
-73.327492 -142.4684 -906.63165
-73.13942 -143.79823 -904.57104
-75.531723 -152.63055 -912.50336
-75.170181 -155.35684 -911.85614
-74.963982 -156.8707 -913.7876
-75.038086 -156.2612 -915.89594
-74.566292 -159.51311 -913.90558
-74.263893 -161.11464 -915.90594
-75.36937 -153.98784 -916.39325
-75.528824 -152.67926 -918.96533
-75.713707 -150.19588 -920.78424
-75.230042 -154.47392 -921.14099
-74.862061 -157.24925 -917.97797
-74.508667 -159.31561 -918.4292
-74.949387 -156.4287 -920.09412
-20.350445 -178.39371 -921.31757
-22.768265 -179.23892 -921.34991
-23.935331 -180.1451 -919.17761
-24.386723 -178.84552 -923.36249
-26.39011 -180.77037 -918.521
-28.001266 -181.09167 -920.47003
-27.317383 -180.85063 -916.09064
-26.65588 -179.71988 -923.21375
-30.355247 -181.82721 -920.05414
-30.608006 -181.17917 -922.74365
-32.355717 -182.31223 -918.73383
-31.045334 -181.8791 -916.9455
-31.956902 -181.88028 -914.64764
13.739024 -132.34656 -865.9621
118.17361 -102.99187 -897.28436
117.09589 -100.89481 -897.7782
118.18117 -98.121216 -897.10925
115.78877 -102.90376 -898.36536
113.40507 -102.89449 -899.35913
110.92022 -102.7738 -900.28882
109.12769 -104.57938 -901.05798
108.73483 -101.75825 -900.91632
115.98296 -98.610977 -897.98523
113.33422 -98.42382 -898.76074
107.1041 -103.39337 -901.6795
104.6993 -104.07775 -902.40771
103.97645 -106.96869 -902.82574
107.80991 -99.423851 -900.56464
105.25406 -99.081322 -900.99414
102.79419 -99.415909 -901.53876
114.76602 -104.96846 -898.7431
112.52258 -100.6063 -899.50861
102.5442 -104.96349 -903.12415
100.54688 -103.60503 -903.48492
100.60489 -100.94562 -902.59045
98.263748 -100.41387 -902.99738
98.152863 -98.310631 -901.89502
96.280487 -101.23686 -904.19012
105.91733 -108.3793 -902.12622
106.11972 -97.152565 -899.84015
104.91783 -95.397865 -898.9765
34.523476 -116.7123 -861.3252
12.624226 -224.32246 -1034.9441
15.325394 -224.72839 -1034.0543
16.69882 -222.77757 -1031.9409
17.083479 -226.02551 -1035.9197
17.653255 -224.62917 -1033.7063
17.609566 -226.15125 -1039.6307
19.848196 -224.2637 -1041.0001
19.807287 -225.22574 -1034.5214
21.606705 -225.95827 -1036.3644
24.080166 -225.91203 -1038.0529
19.167969 -221.53746 -1042.1146
21.665895 -224.13322 -1033.5006
24.009085 -223.42088 -1033.1212
25.801668 -222.05333 -1031.9727
25.834078 -224.87735 -1035.1511
21.359776 -222.56894 -1031.8374
21.235987 -220.75285 -1030.236
19.323349 -222.05392 -1031.2104
24.903734 -223.93459 -1040.5922
14.532091 -225.31233 -1040.3231
14.457293 -222.46117 -1042.0316
13.158119 -219.7318 -1043.0431
12.485201 -225.26271 -1038.1454
19.800341 -219.35863 -1029.1877
17.329685 -218.09427 -1028.4387
20.103949 -216.97667 -1027.8225
22.713705 -216.07741 -1027.601
23.747183 -220.30138 -1030.1525
24.712116 -218.19458 -1028.8086
27.534664 -223.65767 -1040.5653
28.939245 -224.97748 -1038.0585
28.589594 -224.44704 -1035.0913
27.055904 -221.3136 -1041.7612
29.438702 -218.68556 -1042.3601
31.790783 -217.50589 -1042.5615
31.669188 -220.33592 -1041.6389
27.280413 -218.8085 -1042.5253
25.213099 -217.81664 -1043.0076
22.756052 -217.46803 -1043.2504
27.306534 -216.30063 -1043.3525
22.462315 -215.2827 -1043.9808
24.278849 -213.72023 -1044.4386
20.671438 -213.69354 -1044.5923
30.821661 -223.72078 -1039.642
33.288998 -223.86356 -1037.8279
24.803303 -211.69122 -1045.1151
14.491903 -217.39012 -1043.6968
35.331932 -223.35464 -1036.1411
36.069042 -221.99371 -1033.7501
38.187698 -220.97833 -1032.9185
40.109493 -221.71347 -1034.5818
39.923801 -222.18944 -1037.3849
37.661465 -222.63351 -1038.3162
42.031742 -220.50897 -1033.4478
43.123959 -218.79204 -1031.5801
44.00293 -220.82735 -1034.8247
34.478634 -220.98824 -1031.9017
32.196285 -221.41475 -1031.9784
31.015846 -223.04378 -1033.7688
30.166311 -220.92697 -1031.334
29.791473 -218.99673 -1029.7238
27.890764 -220.90216 -1031.1389
31.61323 -217.45139 -1028.9019
27.568478 -218.41104 -1029.2186
33.827831 -218.49472 -1029.6895
35.998226 -217.57005 -1029.4156
36.059265 -215.26227 -1028.3213
34.061657 -213.8858 -1027.5411
38.089642 -218.75027 -1030.6201
33.100483 -211.99126 -1026.7507
40.400837 -218.06555 -1030.4851
41.02927 -216.20145 -1029.2837
42.53624 -214.07249 -1028.3328
39.183537 -214.57704 -1028.2976
27.398903 -216.56339 -1028.1995
28.919964 -214.78415 -1027.52
26.704855 -214.72168 -1027.3438
25.769979 -212.94011 -1026.5431
27.262371 -211.25116 -1025.9897
26.747784 -209.25369 -1025.0592
24.676655 -208.87732 -1024.7539
22.878763 -210.23315 -1025.3175
20.975492 -209.04575 -1024.6895
28.752851 -209.79875 -1025.4688
30.450222 -208.32414 -1024.9282
31.217213 -215.42421 -1027.98
32.677242 -223.76074 -1035.4487
44.610176 -214.77235 -1028.952
42.3218 -211.85867 -1027.2905
40.348675 -210.83954 -1026.7296
41.792412 -165.11948 -1020.6996
41.510174 -164.87759 -1018.2086
42.579063 -166.36693 -1016.8915
39.935909 -163.29738 -1018.7039
38.432774 -162.29697 -1020.1596
40.345917 -193.88873 -1017.0787
39.749763 -196.0692 -1018.7583
127.93617 -105.05193 -856.17883
128.77382 -103.05864 -855.84387
130.16565 -105.02887 -856.65601
132.4351 -104.28027 -857.10742
132.9872 -101.7946 -856.7804
69.186935 -196.89543 -1045.385
71.671524 -197.70959 -1044.946
72.822563 -200.24405 -1043.9003
70.200912 -202.30037 -1043.3525
74.610504 -202.56429 -1042.8904
67.774101 -201.71387 -1043.7058
70.494736 -205.45784 -1042.2477
68.409286 -207.59045 -1041.6652
66.443947 -209.78296 -1041.0151
77.313248 -201.75978 -1042.8529
78.58519 -199.04883 -1043.65
76.652725 -204.55569 -1042.0642
80.0858 -201.25468 -1042.6854
82.469086 -202.48178 -1041.9705
84.121887 -204.92012 -1041.0236
87.014473 -204.82309 -1040.9521
89.539261 -206.01942 -1039.8457
89.21582 -208.61761 -1035.7441
92.590675 -205.06297 -1039.1953
91.053185 -206.27959 -1033.4603
88.043678 -202.30289 -1041.5565
86.681343 -199.72276 -1042.4165
86.663864 -196.6926 -1043.3987
90.258179 -200.84337 -1041.923
92.686317 -199.18121 -1042.2957
93.116425 -202.30179 -1040.8196
94.739937 -203.26004 -1037.8876
84.300186 -194.58778 -1044.403
85.178329 -191.71741 -1045.278
84.006256 -200.15631 -1042.5341
84.245232 -197.51164 -1043.389
81.859779 -196.88626 -1043.9426
86.712471 -209.76761 -1035.1365
85.041153 -208.7233 -1032.5792
82.313538 -209.46965 -1032.5089
83.004944 -207.24977 -1030.4821
80.410927 -206.08115 -1028.8282
85.096222 -209.55527 -1038.217
82.465401 -210.16272 -1038.4375
81.43206 -211.23471 -1035.5399
90.933578 -197.0088 -1043.0942
86.129105 -206.75078 -1030.8945
88.741264 -205.55243 -1031.3318
87.175507 -204.01051 -1029.6796
79.152489 -212.04272 -1035.9231
82.625084 -192.12398 -1045.5236
79.635834 -192.19997 -1046.0065
77.058723 -191.57568 -1046.614
74.140701 -190.95863 -1047.1281
81.66256 -203.69116 -1027.744
70.867241 -208.0106 -1041.4303
71.895012 -210.63055 -1040.3688
74.374191 -212.43886 -1038.9996
70.862839 -213.07051 -1039.2006
74.583313 -213.32977 -1035.5441
72.141602 -213.80208 -1034.3495
69.474281 -214.23509 -1033.6653
76.442253 -212.58394 -1034.2657
71.736366 -212.40829 -1031.8785
75.968979 -211.21814 -1031.9482
74.175369 -210.26825 -1030.3892
48.441544 -147.45988 -1054.0753
51.898685 -147.76971 -1050.9489
19.151262 -156.48758 -1051.1327
16.634075 -157.27214 -1050.9733
14.666018 -158.72142 -1049.0326
20.481104 -156.98315 -1049.3291
19.34712 -158.38103 -1047.3557
17.718647 -159.84741 -1045.5535
16.948084 -158.8437 -1047.5819
21.925013 -157.75957 -1047.2823
12.730433 -160.21568 -1047.3098
17.027344 -156.23801 -1053.6154
15.433743 -156.20325 -1055.7301
13.13674 -157.01505 -1055.3293
12.151089 -157.95317 -1052.5206
10.842319 -157.72276 -1055.1139
9.0870647 -157.81767 -1056.7411
17.791702 -155.44342 -1055.8477
19.929787 -154.71791 -1056.2631
18.494926 -154.90782 -1058.2355
19.414289 -154.94795 -1061.3136
17.157082 -155.46468 -1060.051
14.170832 -156.42752 -1057.5834
22.110315 -154.01811 -1056.6401
24.580553 -153.1718 -1057.3445
22.885113 -153.58087 -1059.025
21.740967 -154.44615 -1061.442
21.291405 -154.83313 -1054.0957
12.880898 -156.69574 -1059.4364
10.570271 -157.25262 -1059.5835
12.818596 -157.36873 -1061.7966
12.698601 -159.19257 -1063.8345
11.81015 -161.52307 -1064.038
9.4787149 -159.52396 -1063.5367
8.2067118 -158.02222 -1061.2288
7.6733031 -162.12491 -1063.9567
5.6193895 -161.35414 -1063.7334
4.490623 -159.52188 -1061.5664
3.9850874 -162.98911 -1063.7667
14.232994 -157.91528 -1051.0116
12.376616 -161.6991 -1045.123
10.465575 -162.91617 -1043.8783
7.8322372 -163.6342 -1044.0383
6.8653116 -162.63832 -1046.3092
7.9753809 -161.19008 -1047.9523
9.1552935 -159.90283 -1049.7637
10.52505 -160.59669 -1047.7706
10.074537 -158.75233 -1051.9268
5.6233039 -161.72729 -1048.5925
3.2320082 -162.56262 -1049.1643
1.8428307 -164.36565 -1047.6486
3.057543 -165.21201 -1045.1475
0.27000043 -163.98106 -1050.3339
-2.0826848 -166.13266 -1051.1654
0.61423337 -166.59407 -1045.6621
4.5405059 -161.03929 -1050.998
3.4142029 -160.84343 -1053.2943
1.0332701 -162.16528 -1053.609
-0.9048292 -164.06091 -1052.8475
1.4524531 -161.25456 -1056.2948
-0.32680088 -162.37077 -1059.2261
-2.4325492 -164.34618 -1058.5975
-3.8135116 -167.21553 -1059.2206
-0.45698765 -168.72958 -1043.8568
-2.3460107 -164.81801 -1055.5459
7.856802 -159.44463 -1051.968
3.0812583 -159.97949 -1058.0365
5.4138441 -164.03255 -1044.9948
-0.17921518 -164.01817 -1062.3165
-1.3954387 -167.87959 -1046.6923
-3.3641207 -170.21902 -1047.9791
-4.271832 -173.0284 -1047.1841
-4.6249633 -171.94458 -1049.8152
-4.9643655 -170.97227 -1052.4053
-4.840179 -169.62216 -1054.8397
-5.8141704 -173.70085 -1052.4304
-5.3203778 -175.84723 -1047.0922
-3.7785094 -168.16769 -1052.7744
-5.1685572 -171.13051 -1057.9948
-2.3473115 -167.65038 -1049.1292
-2.3405101 -168.93773 -1061.7075
-5.6564069 -173.55423 -1057.6866
-3.9564242 -172.96515 -1059.7458
-1.8181568 -174.29198 -1060.3542
-4.7180328 -168.77599 -1057.5226
-2.4686553 -155.14394 -981.96826
42.481213 -156.85777 -1039.9592
41.407188 -156.01138 -1041.8723
44.072994 -155.74753 -930.98059
42.910416 -157.29773 -932.90851
43.378052 -157.61177 -935.1828
45.00528 -156.11136 -936.29907
46.750538 -154.05885 -936.82422
44.018017 -158.07895 -937.88983
45.095215 -157.73105 -939.836
46.529907 -155.98245 -940.38068
46.627731 -157.04483 -942.31885
46.13369 -158.64049 -943.71381
44.626537 -160.12729 -943.00574
47.054901 -154.56731 -939.00305
104.56409 -127.28073 -866.12384
8.2281065 -135.61592 -865.92468
9.9610672 -137.40178 -865.73193
10.913736 -139.87192 -866.11316
12.442828 -136.42279 -865.68488
10.455166 -142.11763 -866.66132
12.743577 -138.76213 -865.9599
15.022483 -140.17059 -866.12537
15.136878 -142.61295 -865.98682
14.590383 -145.11818 -866.32123
12.330749 -146.62239 -866.96216
16.851263 -138.54036 -866.26831
16.405291 -136.28862 -866.50555
18.211672 -134.65237 -866.74359
15.830215 -133.88437 -866.51477
19.119915 -138.68417 -866.03265
-9.6490526 -206.08835 -1042.1183
-5.7969046 -198.52682 -1035.009
-4.223166 -199.76933 -1033.608
4.5408096 -169.74304 -940.08679
6.0532227 -170.82063 -941.73541
-40.580845 -173.52118 -937.64636
18.088745 -114.24005 -922.71375
54.179005 -90.262535 -889.91327
52.322712 -90.578087 -888.64496
51.459518 -90.860123 -886.67786
50.561428 -90.819305 -889.72614
52.628662 -90.950378 -884.41956
49.216824 -91.233124 -886.79224
51.198986 -91.707886 -882.41748
48.951317 -92.164658 -882.32935
-71.369186 -145.26872 -935.53784
-69.47216 -143.65863 -936.17163
-74.495186 -155.99716 -905.3183
-73.990967 -157.40643 -903.11774
92.740616 -140.28879 -880.47394
90.784187 -141.4357 -881.04688
90.101288 -141.28891 -878.67181
83.555054 -144.97145 -889.0556
85.465126 -143.91238 -888.95941
84.692802 -144.69516 -886.80634
85.720741 -143.31668 -890.99707
-3.9531183 -119.77891 -877.15088
-1.6340871 -118.48577 -877.27563
0.31311727 -118.60767 -876.0166
2.5951841 -117.97623 -874.3465
3.1279392 -119.82093 -872.5351
5.1792464 -119.50743 -871.01685
-65.84005 -171.95038 -895.31812
44.918304 -155.77286 -920.66815
103.04423 -85.165298 -886.61304
100.50832 -85.336693 -886.52905
96.277412 -84.876091 -877.86707
94.784035 -85.636887 -876.01526
95.444504 -86.193054 -872.95233
97.839798 -85.803879 -872.36438
98.774521 -86.303993 -869.94128
97.598312 -87.424767 -868.0791
99.439316 -84.979691 -874.15057
98.941269 -84.506859 -876.4502
92.253174 -86.242218 -876.50153
91.28373 -86.207153 -878.86639
92.769356 -85.661591 -880.78778
101.62296 -84.626297 -873.75104
83.945122 -138.62057 -903.65924
122.37874 -83.277977 -883.177
122.07735 -82.57505 -881.0614
124.26668 -83.797356 -884.28906
126.47826 -83.678589 -883.6604
128.74695 -84.406342 -884.14221
130.34239 -83.848145 -882.61084
129.84755 -82.764465 -880.49872
130.91635 -85.16066 -884.27203
133.15675 -86.11055 -884.32135
134.97578 -85.722801 -882.64032
131.73779 -87.017052 -885.87219
132.31413 -88.899765 -887.21704
130.08838 -87.891808 -887.27368
128.03625 -86.941719 -887.17596
127.57925 -85.349304 -885.77893
131.8739 -83.384201 -880.98676
133.95354 -84.200989 -881.16388
133.88568 -83.304115 -878.98926
133.08095 -82.373367 -876.89227
137.16301 -86.491005 -881.2254
134.47725 -89.938629 -886.93134
136.47484 -89.40081 -885.43182
135.5894 -83.955666 -877.72284
134.69185 -83.068695 -875.62885
129.60399 -82.018806 -878.35431
130.86382 -81.759468 -876.51172
127.91935 -82.206078 -879.49432
126.38483 -82.692726 -881.21082
124.45261 -82.296417 -880.22961
2.8490465 -164.39604 -1016.0781
4.8970275 -163.72273 -1017.0117
33.400551 -161.62563 -916.24628
31.409998 -161.93501 -917.31177
29.513464 -162.6348 -916.42474
29.491667 -162.86028 -914.22504
28.834848 -163.36125 -912.24835
27.168856 -164.18974 -910.74365
14.296837 -110.68297 -917.82794
12.334055 -111.50787 -918.48425
10.580109 -112.75071 -919.72632
9.7984982 -114.48835 -921.77753
10.130268 -111.24525 -917.48718
14.827185 -111.97768 -919.64398
14.577741 -113.3867 -921.32098
12.443418 -114.05698 -921.7489
3.3060863 -168.42709 -888.19086
5.2852407 -168.6366 -889.40326
7.8401752 -168.0587 -889.20471
3.5512211 -167.33696 -886.25653
-42.859478 -149.38863 -942.81439
-40.896446 -146.9666 -942.11243
-38.574234 -148.87523 -942.87708
-36.391479 -147.9856 -942.5788
-35.074593 -145.09158 -941.46375
-37.200695 -143.47231 -940.74316
-39.937817 -144.25905 -941.01166
-38.981377 -141.86769 -940.05463
-38.136536 -139.72119 -939.08887
-39.600002 -137.76347 -937.80536
-41.735962 -136.70779 -936.35468
-36.446785 -138.42865 -938.4986
-34.317787 -139.41768 -938.97919
-33.033756 -141.18881 -939.73383
-34.8615 -142.67094 -940.38483
-30.763634 -141.7831 -939.95715
-33.338417 -137.37134 -938.11456
-33.395573 -135.03178 -936.4248
-35.908886 -134.82039 -935.73132
-36.424751 -133.36766 -933.33453
-31.022026 -137.1272 -938.10345
-29.558702 -139.12466 -938.90723
-30.512403 -144.19414 -940.90186
-30.323723 -146.56686 -941.68079
-27.956438 -147.68707 -941.6925
-25.256437 -148.99994 -941.52942
-32.458683 -145.44969 -941.47424
-29.955954 -149.05382 -942.18854
-31.986174 -150.61205 -942.66351
-35.633465 -131.90079 -931.68127
-37.267998 -129.46291 -929.53296
-39.779938 -129.91045 -929.43585
-41.275837 -128.31557 -927.74225
-43.759739 -128.89072 -927.67548
-28.734552 -143.08446 -940.41217
-25.518 -143.72191 -940.40466
-26.849913 -142.07552 -939.9621
-37.589874 -136.5661 -937.16736
-33.869381 -152.24097 -943.05688
-34.236988 -149.55116 -942.78009
-34.286896 -147.2002 -942.21545
-38.972866 -133.54787 -932.93909
-40.460148 -132.20889 -931.0672
-42.876091 -132.71771 -930.97162
-43.820312 -134.60838 -932.54413
-42.705376 -135.56143 -934.35901
-46.366665 -134.93117 -932.19434
-47.865192 -133.72185 -930.81476
-50.107883 -132.39024 -929.24762
-47.155926 -136.25087 -933.50433
-46.462448 -137.52463 -935.57001
-49.319523 -136.23317 -932.83997
-47.040859 -132.1088 -929.73596
-44.618908 -131.26457 -929.5332
-48.386951 -131.11392 -928.56738
-47.9893 -129.71208 -927.03748
-45.891132 -128.91377 -926.8374
-45.197166 -127.78522 -925.09338
-49.480156 -129.29105 -925.16974
-51.281506 -130.0894 -925.34576
-51.925018 -129.56274 -923.07251
-51.835011 -128.90678 -920.82123
-52.373562 -131.30211 -926.86194
-54.803146 -132.01212 -926.58862
-55.411205 -133.55829 -928.82172
-57.153214 -134.92833 -930.06274
-59.533184 -135.26364 -929.81897
-29.215464 -136.31998 -937.67181
-28.973349 -134.47691 -936.37469
-28.35841 -133.08188 -934.78882
-27.970732 -131.84438 -933.04071
-30.001635 -131.42346 -931.8241
-27.012556 -130.59511 -931.20087
-30.872498 -133.8243 -935.32874
-32.105606 -133.02771 -933.91217
-33.531933 -132.38235 -932.51691
-27.011936 -135.77939 -937.40704
-24.637136 -134.97462 -936.84888
-25.322205 -137.19685 -938.06512
-26.110996 -132.84705 -934.7182
-24.308634 -132.35262 -934.31531
-22.428143 -131.92995 -933.83514
-20.652668 -133.09293 -935.34058
-20.477972 -131.50502 -933.57196
-20.057699 -130.2522 -931.70984
-24.188187 -131.02431 -932.2901
-23.474451 -129.80664 -930.6947
-22.130283 -135.15884 -936.91132
-20.407784 -136.96062 -937.80048
-21.666534 -139.76556 -938.84998
-18.466002 -140.80847 -939.29803
-31.016476 -130.12514 -930.31665
-30.290014 -128.0697 -928.91467
-31.051331 -126.02277 -927.46466
-32.97438 -129.3978 -929.75165
-35.18597 -128.20609 -928.88037
-34.588245 -126.63084 -927.45288
-35.12077 -130.373 -930.33051
-33.324257 -125.51311 -926.34021
-26.573589 -139.26395 -938.8916
-24.098637 -139.15924 -938.76123
-61.013706 -134.63896 -928.2829
-60.336945 -133.48805 -926.2594
-58.258312 -132.78308 -925.83344
-36.620617 -126.91454 -927.3363
-38.193184 -126.36118 -925.98535
-40.641834 -126.91515 -925.70709
-26.228828 -146.10147 -941.20398
-41.506821 -141.97119 -939.98553
-43.126266 -140.33929 -939.11047
-42.153378 -138.47861 -937.99823
-56.172462 -136.58575 -932.05914
-53.899986 -136.77002 -932.64319
-51.974895 -135.49608 -931.57257
-29.691826 -124.90602 -926.34753
-30.078804 -123.65686 -924.24048
-31.205898 -123.18496 -922.41699
-37.932816 -134.58522 -934.80048
-40.525738 -135.05176 -934.41638
-63.293987 -135.29662 -928.54517
16.771645 -221.24605 -1042.2635
15.463739 -219.48775 -1042.9294
23.465477 -152.76527 -1003.2479
23.575203 -151.95801 -1001.1293
22.930634 -153.66512 -1005.4265
22.233574 -154.45784 -1007.293
23.048517 -154.99049 -1009.0615
22.77697 -155.87231 -1011.2962
25.214058 -154.94247 -1009.5963
19.977213 -155.0849 -1007.8499
21.297649 -153.38795 -1003.9254
19.288704 -153.3204 -1002.6605
17.297974 -153.28169 -1001.3993
19.488466 -152.48358 -1000.6527
19.107153 -154.12463 -1004.6899
17.234886 -154.89857 -1005.6161
19.472036 -151.68979 -998.57587
19.717888 -150.73567 -996.13507
17.781361 -151.53989 -997.14624
15.292037 -152.01012 -996.61725
14.442602 -151.51343 -994.55511
12.518288 -152.58638 -995.81451
18.650349 -149.97081 -993.37695
21.517918 -151.84987 -1000.0485
23.362089 -151.14896 -998.9649
25.079802 -150.08894 -996.60846
22.764482 -150.41225 -996.73407
16.045774 -150.4713 -992.96021
13.908856 -150.8075 -992.16357
25.616062 -149.03453 -993.88342
73.288483 -135.85498 -915.67853
-0.45700762 -172.35817 -953.06683
-2.0656288 -170.64812 -952.80426
-3.4016058 -169.58453 -953.96576
64.243973 -154.74641 -1060.0464
66.791092 -156.66411 -1059.2789
62.490437 -152.63275 -1060.9264
66.098854 -159.25792 -1058.4089
63.540646 -160.02972 -1058.1576
68.812653 -158.57101 -1058.5355
71.759399 -158.50246 -1058.3794
73.211952 -160.88026 -1057.5359
73.140305 -156.03419 -1059.0596
71.881508 -153.99812 -1059.9135
69.352432 -153.18883 -1060.4803
72.239449 -163.2493 -1056.8363
69.492081 -163.3876 -1056.924
67.020935 -164.01086 -1056.7762
67.925827 -161.28676 -1057.6824
73.70536 -152.27538 -1060.4908
73.659126 -150.0148 -1061.6562
76.327797 -151.45264 -1060.7188
78.550156 -153.02121 -1059.897
78.766281 -149.80513 -1061.4541
71.314606 -149.02423 -1062.2117
69.419968 -147.25844 -1062.6541
66.986214 -145.92606 -1062.8147
69.673935 -144.18109 -1062.265
72.765762 -142.90041 -1060.9683
73.014938 -142.42805 -1058.0598
69.469193 -143.09761 -1055.2693
76.412712 -143.29247 -1055.0405
69.384834 -143.93808 -1051.5723
79.909996 -144.14328 -1057.2411
67.487259 -143.40054 -1060.2753
65.758575 -143.27605 -1056.926
69.396591 -150.42848 -1061.6918
67.340996 -151.32437 -1061.4774
64.634537 -151.81757 -1061.38
65.622192 -149.76369 -1062.3202
64.724258 -147.59534 -1062.8241
61.485527 -147.48418 -1062.7367
59.158791 -148.50935 -1062.4303
57.173954 -146.14499 -1061.6624
56.91169 -149.27365 -1062.1287
54.764122 -150.39302 -1061.4954
57.862644 -144.5388 -1059.3588
59.29483 -144.18898 -1056.4355
57.979797 -145.20125 -1053.7479
55.372349 -145.55891 -1060.0836
61.099751 -144.62204 -1053.4105
63.283619 -144.67496 -1052.0385
64.141701 -145.72098 -1049.1599
61.175011 -148.11122 -1046.6593
63.097355 -150.29903 -1043.7627
62.40176 -153.65564 -1040.7867
66.818336 -145.73524 -1048.2527
69.205566 -147.99045 -1045.2452
66.48597 -155.14447 -1039.5278
71.567902 -153.82622 -1040.995
64.727829 -143.83241 -1054.407
67.447792 -143.53575 -1054.203
73.989204 -147.55763 -1062.6995
76.542198 -145.93681 -1062.5033
68.029305 -142.88692 -1057.5232
61.998306 -144.19414 -1060.9982
60.836708 -143.69962 -1058.7863
63.545937 -143.41068 -1058.3646
53.068752 -151.47925 -1060.8618
53.354801 -153.83066 -1059.7991
71.921974 -147.42688 -1045.8336
76.499756 -147.14201 -1047.173
81.274231 -148.42911 -1048.5032
73.874603 -145.73753 -1048.0521
70.753738 -149.63336 -1043.8848
78.276741 -150.41304 -1044.8191
79.830414 -154.12799 -1042.6581
84.327621 -155.91005 -1043.3799
80.197624 -157.69543 -1040.7141
86.299309 -153.93855 -1046.8479
75.814827 -152.92961 -1042.313
72.342583 -151.56892 -1042.6292
69.668983 -151.88715 -1042.1436
69.244377 -154.13031 -1040.483
70.902237 -155.94313 -1039.5001
73.873421 -159.36807 -1038.2104
73.818779 -155.96437 -1040.0427
70.611565 -161.6507 -1036.2018
68.190788 -149.95679 -1043.5835
72.223129 -144.33176 -1050.2725
75.170158 -144.56912 -1050.6542
58.445274 -146.10658 -1051.0336
56.956509 -147.42694 -1049.1511
59.554688 -147.10249 -1048.6243
54.400196 -147.71519 -1049.8248
55.606262 -148.83879 -1047.5079
56.950329 -149.76598 -1045.8044
59.275543 -149.76808 -1045.1588
57.102047 -151.06265 -1044.1995
57.002403 -152.69049 -1042.3677
59.398754 -154.0851 -1040.6233
56.966633 -154.24435 -1040.7118
54.495483 -155.19954 -1039.903
52.240704 -154.33698 -1041.299
52.378857 -152.88057 -1043.174
49.944145 -153.52446 -1042.8582
47.990479 -152.47768 -1044.8507
54.735558 -156.72588 -1038.1251
54.835171 -152.146 -1043.4877
53.824551 -146.87639 -1052.0077
55.049679 -145.62184 -1054.6313
64.556129 -164.45201 -1056.6252
56.829613 -151.58714 -1061.3533
57.98497 -153.68161 -1060.3383
60.293682 -153.18318 -1060.6381
53.93026 -145.42326 -1057.3611
81.464462 -149.65132 -1060.8768
84.782516 -147.72844 -1057.4077
82.62291 -145.82431 -1056.6287
81.366501 -145.67691 -1053.8438
82.466171 -147.37375 -1051.6508
73.48938 -145.0148 -1062.6821
75.413597 -143.90714 -1061.8428
75.674606 -156.23314 -1058.795
77.485992 -157.82465 -1058.1357
50.288593 -155.17725 -1040.5239
82.909218 -147.45793 -1059.8301
61.121376 -150.35432 -1062.0159
80.534912 -151.99757 -1060.3153
81.603836 -154.18272 -1059.2048
84.699196 -154.10931 -1058.9941
87.552124 -155.0612 -1057.7213
89.28923 -154.17108 -1054.2922
85.559158 -151.20602 -1058.9016
85.871597 -149.11101 -1055.5515
86.365105 -150.18236 -1053.1064
87.580597 -152.44189 -1051.4216
84.4692 -148.65314 -1052.2654
83.293159 -149.11348 -1049.7013
84.159683 -151.04489 -1048.0383
86.462891 -152.51308 -1049.1486
82.182487 -156.21983 -1058.4358
80.265442 -157.75551 -1057.9736
79.189888 -159.43118 -1057.4746
79.551727 -161.61726 -1056.6826
81.655411 -161.97424 -1056.3392
83.90374 -161.91304 -1056.1871
82.606621 -158.33244 -1057.6149
87.916183 -154.6244 -1048.474
89.666725 -157.20398 -1048.1359
87.985367 -156.22333 -1046.3422
86.892525 -157.58237 -1043.873
88.049034 -160.14305 -1042.9541
91.210831 -162.55011 -1044.5643
85.980698 -155.3102 -1045.0288
83.884796 -153.82378 -1044.7584
82.127106 -154.70187 -1043.1783
82.408226 -156.76003 -1042.0013
84.481529 -158.0022 -1042.078
82.54744 -159.04308 -1040.8187
82.084709 -161.66139 -1039.394
85.795753 -163.52284 -1039.7856
80.795677 -163.96159 -1037.9601
86.844627 -166.1521 -1038.8921
77.909958 -163.46303 -1037.3522
76.29464 -165.73682 -1035.7104
77.413811 -168.36978 -1034.6473
75.969727 -170.64911 -1033.0208
73.510681 -165.41451 -1035.0227
78.996147 -171.42482 -1033.6527
76.452141 -160.80557 -1038.1931
86.119789 -159.33063 -1042.1405
86.619324 -161.58861 -1041.1328
78.276436 -158.86911 -1039.5903
80.679573 -159.85703 -1039.8126
75.629082 -158.35907 -1039.1523
81.844185 -166.43593 -1037.0911
80.554543 -168.22755 -1035.7512
84.063255 -165.52704 -1038.2394
73.110207 -170.03001 -1032.4043
81.115906 -152.94876 -1043.9775
78.984261 -152.30685 -1043.6149
80.341095 -151.11005 -1045.0988
79.681938 -149.09999 -1046.6091
81.937752 -150.10997 -1047.0581
78.897789 -147.28813 -1048.194
76.834908 -145.81871 -1049.0511
77.759804 -153.58118 -1042.3673
78.366226 -155.59457 -1041.3147
80.522163 -146.95213 -1049.9774
80.407555 -155.87607 -1041.7782
76.965538 -151.56223 -1043.5284
75.943176 -149.69917 -1044.6272
74.582535 -147.77089 -1045.9253
74.677094 -151.30324 -1043.1592
77.560425 -148.75496 -1045.9427
80.580788 -145.99419 -1051.9141
87.257027 -168.73001 -1037.6628
84.809631 -170.54626 -1035.9236
89.59108 -170.84351 -1037.4525
91.059677 -173.24712 -1037.0172
92.066734 -170.73586 -1039.2125
92.699593 -168.78783 -1041.2476
90.160316 -175.55646 -1035.3745
92.399956 -177.48143 -1035.8258
91.151588 -166.56815 -1041.1689
76.0681 -173.41734 -1031.8096
76.489532 -176.07474 -1030.8503
78.709915 -177.39299 -1031.0143
81.346077 -176.17317 -1032.3861
80.688431 -173.68127 -1033.219
39.639111 -175.72362 -974.37738
37.860573 -177.57285 -974.85803
37.504566 -178.70261 -976.95227
38.921936 -178.21819 -978.78143
40.435276 -177.27905 -980.51611
40.626045 -176.22598 -978.49408
41.938629 -174.27135 -978.37061
42.827782 -173.45671 -980.40094
42.84013 -174.38342 -982.88007
43.352558 -171.55513 -979.03278
44.038227 -169.64795 -980.42688
44.239223 -169.60457 -982.82098
43.865017 -171.98615 -984.05951
44.318157 -167.45081 -980.18073
43.492584 -170.26244 -977.07617
40.165966 -178.3206 -982.39484
38.575577 -180.03654 -982.57477
39.992737 -179.27094 -984.37384
41.300083 -178.2395 -986.1546
39.884949 -180.11571 -986.44592
42.447716 -176.06488 -985.3335
41.654095 -176.32672 -982.36505
43.37849 -174.78162 -987.40149
41.295837 -179.07304 -988.29541
42.481464 -177.84557 -989.92651
43.340656 -176.64406 -991.48828
41.095295 -180.28033 -990.6098
26.544081 -163.66437 -919.45844
5.7251468 -167.01611 -1037.8248
4.9601007 -166.68051 -1040.0944
2.8818214 -167.44913 -1041.0798
4.1053452 -166.12708 -1042.4568
1.0321381 -168.37927 -1041.946
1.5182821 -168.97441 -1039.6283
0.18365876 -170.60127 -1038.4788
1.8749913 -169.3705 -1037.3865
3.6162047 -168.37169 -1036.5957
5.6107316 -167.53069 -1035.6127
-1.2507687 -171.71782 -1040.0967
-2.4718003 -173.95798 -1040.0565
-1.4427671 -170.85551 -1042.3263
-2.6565402 -171.43135 -1044.3678
-3.9045012 -173.84427 -1044.8546
-3.5545321 -175.04378 -1042.0968
24.599018 -160.7618 -1039.6071
90.924629 -130.68349 -905.02234
141.91077 -98.838036 -866.41547
141.02127 -96.709854 -865.19739
139.28174 -96.662086 -863.58289
140.53145 -94.470467 -865.27014
138.98605 -92.386627 -864.99005
140.99895 -92.604568 -866.06268
-62.740406 -186.04269 -922.23517
84.022957 -171.94849 -1052.5698
48.243069 -161.84261 -956.78308
123.54416 -116.50835 -861.81097
124.98102 -116.76158 -863.08691
125.04017 -117.86101 -864.9494
92.250122 -90.570366 -895.78668
57.132736 -157.61626 -1037.1875
55.47916 -158.34607 -1036.3551
54.175449 -159.67299 -1034.8866
51.68644 -159.58011 -1034.8822
55.041336 -161.06993 -1033.5889
61.761688 -146.58342 -1048.6199
49.079151 -151.6938 -936.56616
51.196194 -150.56268 -936.6825
15.834236 -170.39215 -936.72925
-52.199329 -148.53691 -885.04907
-54.034374 -147.90483 -886.32153
-43.985279 -136.82361 -935.58032
-55.536179 -184.65062 -903.89868
-56.876045 -182.23466 -901.74426
-54.308315 -183.19058 -901.67358
-51.624435 -183.27815 -901.20471
-52.365723 -181.78967 -899.12061
-53.451931 -180.06363 -897.19672
-53.582752 -178.19658 -895.2439
-51.16124 -176.99185 -893.83136
-55.06963 -175.70801 -893.53363
-56.111816 -179.59245 -897.49384
-59.144802 -178.25264 -896.9823
-60.585106 -175.81062 -895.17596
-54.928677 -173.26465 -891.96191
-52.979671 -172.15485 -890.88855
-57.151722 -180.81467 -899.83289
-50.293392 -180.77676 -897.74939
-48.384254 -179.5481 -896.38013
-47.400799 -180.97693 -898.30695
-46.426033 -182.30116 -900.57428
-44.830418 -181.045 -898.91296
-42.6576 -179.60857 -897.06934
-46.674511 -178.15961 -894.9248
-48.544056 -183.42445 -901.82281
-49.218781 -177.99315 -894.6601
-57.655704 -175.71449 -894.20343
-5.1673021 -111.08719 -891.45746
129.78786 -86.086098 -861.90576
130.62663 -87.808304 -860.56177
129.95158 -89.299171 -859.26294
130.84444 -91.090942 -858.45209
133.07768 -91.200912 -859.44354
134.24875 -89.971977 -861.216
134.06993 -93.250443 -859.12787
127.55281 -88.912621 -859.14624
131.92882 -86.846451 -862.01813
135.63997 -94.812531 -859.95929
127.66976 -86.067482 -861.59369
126.42545 -84.998016 -862.91486
126.21797 -83.632729 -865.18445
124.1615 -83.501472 -865.67206
122.33164 -84.463951 -864.32538
122.94064 -85.950348 -862.20837
120.17677 -84.181793 -865.32959
118.1837 -85.138222 -864.24133
119.8978 -83.292465 -867.34534
118.44978 -86.431442 -862.60242
116.67496 -87.553635 -861.85663
120.58022 -87.048187 -861.5368
114.35896 -87.855698 -862.0647
116.15405 -84.935921 -865.06671
115.15599 -84.075615 -867.26813
114.03619 -85.30407 -865.09583
117.42686 -83.267624 -868.5658
112.54601 -86.518951 -863.80402
113.0276 -84.544464 -866.88843
110.76068 -84.671478 -867.66046
-74.227333 -160.89619 -909.51715
35.259979 -161.66501 -890.76837
2.1230021 -183.28598 -973.81006
-56.626614 -139.21548 -935.25879
-54.637764 -139.28323 -935.85626
-52.992191 -138.32352 -934.97131
50.00845 -154.38763 -919.21869
52.733692 -154.14812 -918.31158
54.935879 -159.5007 -909.7887
57.033089 -159.24095 -912.82751
-49.67868 -127.8624 -920.26849
21.261457 -104.2438 -908.11694
39.578831 -155.78368 -1042.9983
39.283871 -161.88393 -1015.3615
40.97987 -163.52538 -1014.0353
42.185139 -164.89952 -1012.0741
39.314194 -161.20323 -1013.1146
39.421871 -160.36423 -1010.6176
39.538174 -159.4201 -1007.8513
39.896248 -158.79613 -1004.884
37.712219 -159.44139 -1012.3645
35.691566 -157.7771 -1011.5899
40.840385 -161.5278 -1009.1216
35.873039 -158.7532 -1014.0361
42.232628 -163.33345 -1007.6667
42.279652 -162.7962 -1005.5724
41.446625 -160.8806 -1004.4302
40.806213 -159.25336 -1002.4605
41.572464 -159.78694 -1000.0953
40.207256 -157.68286 -1000.1766
38.450371 -155.45821 -999.36969
36.966835 -153.65031 -997.62457
42.016312 -163.72795 -1009.9972
37.965611 -157.72981 -1007.2626
38.104721 -156.97246 -1004.9393
36.111298 -157.13904 -1009.2246
42.680019 -163.07649 -1003.4431
43.330696 -164.4939 -1002.1596
43.787067 -166.31944 -1003.6936
43.680088 -166.67578 -1006.3931
44.30846 -168.2343 -1002.6253
44.622723 -170.4469 -1003.7863
35.819717 -153.58591 -999.76825
-15.560914 -145.50395 -875.83447
-27.865015 -178.59134 -926.22626
-21.034161 -149.85521 -941.21387
-22.230844 -147.76485 -941.14496
-20.684216 -145.23988 -940.66217
-22.954391 -144.19167 -940.46765
-18.806229 -143.13882 -940.17554
-18.179892 -145.55258 -940.86755
-15.920309 -146.10808 -941.35992
-17.145073 -148.4465 -941.35931
-13.595008 -146.40683 -942.03424
-14.355917 -144.09573 -941.25024
-37.884731 -183.31963 -915.53613
49.512047 -111.08349 -923.64429
51.276154 -109.75114 -922.70557
53.329144 -111.22618 -923.85138
51.349625 -112.14254 -924.53094
51.675789 -114.04842 -925.92102
53.862358 -114.76457 -926.36389
49.718128 -114.74715 -926.50482
47.692444 -113.96104 -926.0296
49.84053 -116.66714 -927.83105
47.648495 -112.35008 -924.55029
53.10537 -116.78626 -927.71167
55.51321 -116.04446 -927.1853
57.987255 -115.78481 -926.80017
59.547752 -117.5565 -927.75885
58.666599 -119.26043 -928.99628
56.095959 -119.66282 -929.41644
61.532574 -117.15821 -926.92548
63.472893 -116.15944 -925.16522
54.996685 -117.93479 -928.44873
67.143349 -189.36012 -1026.3137
66.961533 -192.02115 -1026.8987
69.49057 -194.02986 -1027.5547
71.997429 -193.50089 -1027.2091
73.020287 -190.28146 -1026.7341
66.195122 -194.80774 -1026.9607
63.184868 -195.96652 -1025.6177
69.83786 -188.42752 -1026.5051
40.670486 -197.83861 -1047.6937
41.161797 -200.10649 -1046.9586
39.182137 -201.63074 -1047.0248
39.761082 -203.89154 -1046.2719
41.772129 -204.36104 -1045.7061
43.62112 -202.95589 -1045.6239
45.733383 -201.57881 -1045.4391
43.871326 -205.40181 -1044.932
46.364998 -206.4716 -1044.0497
43.885834 -207.75052 -1044.2964
43.426868 -210.07584 -1043.725
47.372952 -203.10532 -1044.6528
43.750957 -200.70941 -1046.1331
37.723984 -205.26913 -1046.2435
39.635136 -206.33492 -1045.5785
41.234638 -208.10245 -1044.7512
38.796066 -208.58603 -1045.0198
-31.652634 -120.71147 -902.11639
10.797152 -178.35364 -1057.7731
-10.40068 -172.2787 -926.13727
-12.568644 -172.89516 -926.2464
-11.55777 -171.61028 -927.98438
-12.650368 -171.00592 -929.57892
-14.629772 -173.55217 -926.37836
-15.667239 -172.74811 -928.46301
-5.9470806 -181.11334 -1021.4944
24.213116 -154.21358 -1062.0087
25.399553 -156.41266 -1063.1996
24.728708 -158.83873 -1063.2322
27.115477 -154.46246 -1062.4496
22.59034 -158.75229 -1063.5271
20.364729 -156.48848 -1063.3896
28.997942 -155.8036 -1062.5262
30.895866 -157.46182 -1061.8597
28.610441 -159.22124 -1061.8156
77.205727 -202.02519 -1026.7743
76.446884 -204.19058 -1027.3531
73.951767 -204.44626 -1027.4587
72.418518 -201.99948 -1027.286
71.894165 -205.44588 -1027.8121
69.396271 -206.17259 -1027.8093
71.456306 -207.96483 -1028.5815
67.950523 -203.8217 -1027.3704
65.352173 -203.95967 -1026.9059
64.208618 -201.49593 -1026.4337
69.17263 -201.86464 -1027.4398
68.216843 -199.83157 -1027.4484
65.670807 -199.67499 -1026.9238
65.200943 -197.24634 -1026.6348
-48.762909 -144.37756 -940.81866
-47.348839 -142.23695 -939.84784
-48.587738 -140.65916 -938.72992
36.241104 -163.38596 -935.78424
104.00362 -117.50346 -901.36432
86.900925 -157.62003 -1057.4049
89.688934 -156.93312 -1056.0093
90.458725 -156.31648 -1053.1096
7.3006525 -220.45172 -1037.2535
-2.8593526 -191.77893 -1010.2234
-57.78521 -157.37521 -944.07043
75.031784 -143.42825 -870.21851
-60.677956 -136.64862 -931.32745
-62.965492 -137.30862 -931.76361
-65.004677 -136.77202 -930.33325
-45.381008 -176.51123 -893.36932
-46.250294 -174.64346 -891.70441
-49.151016 -174.21274 -891.46436
18.09935 -143.23077 -975.28076
19.213535 -142.23538 -973.38422
21.579643 -141.89688 -973.78839
23.893503 -141.73308 -974.29388
17.217928 -142.37077 -972.35309
25.992889 -142.03543 -975.52734
21.149496 -141.2234 -971.81476
22.861351 -140.38287 -970.37146
24.002846 -139.62569 -968.7027
-53.047737 -133.92812 -929.91388
62.666229 -165.75438 -1056.147
49.912743 -138.737 -860.7724
47.456909 -139.21909 -861.2774
48.165905 -136.88675 -860.46661
48.674747 -134.90831 -859.77252
50.753193 -134.48631 -859.10919
55.606037 -186.38986 -1022.3196
57.903416 -188.2269 -1022.9457
58.558327 -143.56224 -935.68127
58.119881 -144.76199 -937.55475
52.741302 -151.4859 -1044.8589
51.245922 -150.35699 -1046.8484
50.411026 -149.13373 -1049.0375
53.623898 -150.10582 -1046.4243
49.242416 -151.06032 -1046.489
28.534365 -120.01282 -930.00787
30.16227 -118.23242 -929.0517
30.831533 -120.03266 -930.70947
32.147736 -122.15975 -932.30841
27.139013 -121.80613 -931.09753
27.806625 -123.38574 -932.63525
25.50531 -124.18404 -933.0177
30.075165 -124.19354 -933.51416
30.97122 -126.49168 -935.80609
25.317049 -126.01504 -935.10785
27.41943 -126.82625 -936.38727
26.530127 -128.09958 -938.29169
27.903887 -129.20641 -940.284
30.361929 -129.11667 -939.84998
32.791191 -129.02271 -939.12469
29.781338 -130.23337 -942.26581
31.91642 -131.15805 -943.79364
34.39719 -131.13408 -942.71252
36.355213 -132.23799 -944.09839
38.812962 -132.89084 -943.30762
40.770222 -134.38057 -944.5163
36.109234 -133.1803 -946.77228
33.859852 -133.17441 -948.29266
37.962116 -134.28452 -948.36688
38.326279 -135.10822 -950.89398
40.320805 -134.86201 -947.26831
33.18832 -133.88728 -950.91937
30.730944 -133.83908 -951.95367
28.000742 -133.18185 -950.54224
42.420891 -136.01035 -948.2655
44.859196 -136.79576 -948.36072
48.073532 -136.97301 -948.85413
42.948746 -136.82053 -950.77478
51.147987 -136.11818 -947.23724
48.836628 -137.78304 -951.27936
51.562893 -138.20894 -953.06049
31.816193 -132.317 -946.85223
29.553434 -132.47104 -948.06885
27.90085 -131.77673 -946.42535
25.908094 -131.23395 -945.02899
28.359997 -130.99982 -944.3241
27.334288 -132.48964 -948.5379
25.170698 -132.89944 -949.59717
23.222368 -132.59694 -948.18994
25.772085 -129.463 -940.83276
25.105782 -130.3726 -942.81604
32.205753 -116.75461 -928.29034
34.596577 -116.89597 -929.177
35.312916 -118.78305 -930.92377
37.993137 -119.61666 -931.5722
39.772625 -118.14716 -930.84039
41.431507 -119.93939 -931.56311
38.234261 -121.91844 -932.47076
39.403572 -124.49024 -933.32123
36.642097 -123.49435 -933.10736
34.871819 -125.0789 -934.10431
41.839825 -124.31337 -932.76062
33.122311 -126.37563 -935.40662
35.457367 -126.75895 -935.45605
42.583633 -122.41803 -931.99622
44.771164 -123.2865 -931.79822
34.286625 -123.0743 -932.8714
29.462152 -116.6382 -927.46912
27.321007 -116.55771 -926.79736
53.920261 -137.71426 -951.31134
140.31691 -92.464752 -883.24072
138.69485 -92.988441 -885.80756
137.35898 -94.461853 -887.40771
136.41283 -96.873566 -888.47382
34.460583 -155.93941 -1008.4074
33.971355 -154.97279 -1006.4484
35.730824 -155.24783 -1004.8685
33.91581 -154.10339 -1004.1669
33.917522 -153.30173 -1001.8648
33.466656 -152.47945 -999.93958
32.000767 -151.41878 -998.34363
31.566389 -150.56479 -996.35315
29.367992 -150.01761 -996.0752
27.342102 -150.37564 -997.5296
31.961222 -153.21844 -1003.5131
29.547998 -153.33273 -1005.0751
29.787222 -152.51486 -1002.7076
37.22702 -155.6743 -1003.2618
37.235561 -154.96738 -1001.1168
30.328987 -151.58124 -999.93115
27.170279 -149.56477 -995.34344
30.674608 -149.56657 -994.26819
33.542217 -151.16476 -996.06494
34.839474 -150.96083 -993.96637
35.547222 -152.21243 -996.19775
83.336327 -126.5377 -858.41803
80.068039 -195.578 -1026.2271
77.300873 -195.2058 -1026.2087
78.082619 -192.72482 -1026.3279
79.239365 -190.2888 -1026.8021
80.072502 -187.80763 -1027.5963
78.363617 -185.77724 -1027.7968
75.436317 -186.21205 -1027.0961
76.195442 -190.77902 -1026.5116
81.824738 -190.28841 -1027.2473
74.957588 -188.4977 -1026.7158
-7.3895001 -172.35376 -1004.7095
18.940752 -157.31227 -876.67731
19.731148 -137.96432 -961.90594
31.988346 -183.69609 -981.95831
31.330313 -184.64824 -983.87726
-66.240349 -178.5575 -902.45459
-66.366974 -177.13754 -900.28503
-67.999413 -174.91225 -899.84888
-64.046936 -177.69447 -898.90948
-62.272476 -178.90697 -899.75995
-61.980618 -180.23033 -901.99915
-59.925552 -181.98935 -903.37238
-65.809814 -176.04895 -898.27441
-63.687675 -176.00534 -896.73529
-63.146339 -174.07199 -894.98425
-61.203064 -173.30579 -893.86047
-60.380268 -171.29677 -892.58484
-62.28093 -169.601 -892.57922
-62.408203 -167.09608 -891.89514
-64.475693 -168.98952 -893.28851
-64.470726 -166.01807 -892.59912
-60.075108 -166.10904 -890.81006
-57.02467 -166.96165 -889.94965
-66.762062 -164.81958 -893.57715
-68.626999 -162.93503 -894.57306
-67.91642 -160.43584 -894.37073
-68.665985 -165.99124 -895.09766
-65.215729 -159.89447 -893.29602
-63.233673 -161.62756 -891.98761
-70.590973 -162.17953 -896.12994
-71.555855 -163.90437 -898.19214
-72.055496 -161.25513 -898.22015
-72.940483 -160.51096 -900.26715
-72.299744 -158.77834 -898.18964
-72.281563 -155.62901 -898.15417
-71.047363 -157.28993 -896.70984
-69.258965 -158.63124 -895.34064
-73.114853 -161.84846 -902.30829
-72.500946 -164.06474 -901.69684
-72.219658 -165.87041 -902.61725
-72.54277 -166.0325 -904.84937
-72.038666 -168.13184 -905.75305
-72.25338 -168.18102 -907.97772
-71.671455 -170.24823 -909.10626
-72.849823 -166.56221 -909.41217
-72.933296 -166.6747 -911.7804
-70.970268 -171.95145 -907.78912
-70.646622 -172.19862 -905.68719
-71.016838 -170.42166 -903.70862
-69.870689 -174.27846 -905.4834
-73.535072 -159.34714 -902.01587
-72.269737 -168.9772 -912.34546
-72.62677 -167.90308 -914.61902
-73.509972 -164.61575 -912.44574
-73.731339 -163.79913 -914.34644
-68.301308 -156.51222 -895.56519
-66.578697 -155.58543 -895.25214
-64.9786 -157.03697 -894.17456
-64.782928 -154.7516 -894.72333
-64.053848 -152.67188 -894.79633
-62.390011 -151.37485 -893.58588
-61.170597 -153.09332 -891.85864
-62.995567 -148.85631 -894.42902
-63.954601 -146.73778 -895.64362
-61.430325 -148.75732 -892.78137
-59.789532 -148.91399 -890.95526
-59.400249 -151.453 -890.125
-58.039261 -148.3519 -889.34589
-60.671486 -146.43835 -892.59485
-65.292999 -149.02353 -896.16412
-58.544178 -170.18533 -891.54993
-57.547882 -172.05188 -892.05963
-56.857761 -174.03651 -892.92108
-58.136425 -168.20958 -890.70795
-63.350285 -156.31743 -893.33521
-62.057186 -157.47836 -892.00299
-60.662907 -158.50797 -890.71442
-59.037617 -159.43753 -889.54785
-59.160011 -157.07692 -889.57666
-62.546627 -159.62921 -891.91595
-59.207115 -161.9021 -889.80194
-61.067619 -163.23291 -890.79022
-57.098419 -162.86407 -888.96545
-55.385044 -161.88374 -887.95746
-56.838654 -164.84613 -889.30688
-52.858421 -162.55467 -887.00287
-52.053234 -160.39859 -885.75732
-55.107521 -166.01276 -889.04675
-55.214214 -168.40187 -889.87042
-54.186417 -170.48596 -890.40649
-53.290951 -166.73691 -888.71649
-52.16238 -158.0974 -885.1369
-53.452362 -156.07225 -885.51489
-55.53532 -156.59917 -886.91364
-56.72126 -158.65926 -888.02222
-56.568401 -154.67355 -887.50043
-55.781094 -151.94124 -886.93896
-60.760609 -178.58403 -898.33258
-68.171791 -168.21611 -895.47369
-68.089493 -170.55589 -896.48639
-66.453285 -169.63193 -894.63531
-69.534248 -170.334 -898.47131
-70.517036 -168.61646 -899.22699
-71.298729 -168.31224 -901.53137
-69.365799 -172.34337 -899.9198
-70.073051 -172.12254 -901.87946
-69.080063 -174.45149 -902.1153
-70.628441 -166.63673 -897.95856
60.641872 -212.37015 -1029.6425
-61.044144 -183.06049 -905.03601
-63.277954 -182.84706 -905.91656
15.050886 -166.20946 -888.81812
22.310814 -100.61052 -884.26343
21.662357 -101.00079 -886.55347
19.814226 -101.76237 -887.57452
-31.468826 -123.68527 -888.96759
-69.951385 -175.32899 -920.28455
34.579834 -201.2213 -1021.2924
35.143639 -199.33333 -1019.8243
33.440235 -198.36751 -1018.1965
31.848305 -197.54446 -1016.4305
29.890759 -196.99121 -1014.4796
30.620079 -195.65378 -1012.3066
28.731791 -195.19562 -1010.0357
30.992779 -199.40385 -1018.4905
32.918022 -196.19054 -1014.9017
34.217148 -203.0123 -1022.4874
34.095169 -205.13063 -1023.7269
52.197048 -139.77666 -955.45428
54.82217 -141.45303 -955.40161
54.341179 -139.14752 -953.64545
50.247723 -141.01376 -957.37311
47.498009 -140.02585 -957.97388
-27.425758 -123.67283 -886.79706
69.49176 -150.44637 -903.0296
69.223999 -149.92484 -905.61749
141.52202 -105.91653 -866.61963
142.15045 -103.31756 -868.18726
16.312212 -163.81938 -1034.3655
128.44797 -83.537224 -865.35034
20.882174 -165.52728 -922.01044
23.120205 -164.84647 -921.93463
25.264002 -164.31573 -923.42798
27.448568 -163.76819 -924.55298
29.773127 -162.9991 -924.65942
29.665024 -162.72858 -922.33179
31.856382 -161.80756 -921.48669
19.927608 -200.22244 -1049.4757
51.569633 -157.66966 -881.22601
53.819889 -157.57243 -882.63184
51.43848 -158.48776 -883.46997
78.111771 -147.69031 -889.7934
-19.765818 -118.3289 -917.87891
-21.546301 -118.03004 -916.00763
31.772676 -182.48161 -978.52252
-0.58210266 -172.59311 -897.01379
1.3846749 -172.44989 -898.40558
3.9842985 -171.61075 -897.77673
30.022263 -163.66888 -908.17566
62.413673 -132.94853 -859.83643
61.121441 -131.28505 -859.19116
62.027321 -128.65414 -858.34558
-6.4055614 -176.88887 -1049.677
-7.6912279 -178.26787 -1051.3182
-8.0481358 -178.47485 -1054.0577
-8.6341515 -180.55595 -1055.4482
-10.21563 -181.86971 -1053.5566
-11.246919 -183.88115 -1053.7871
-9.5404749 -187.49582 -1055.079
-8.0564556 -186.12949 -1055.8444
-7.1838279 -183.86887 -1056.7743
60.738945 -150.91972 -1043.5413
60.342121 -152.66481 -1041.8801
61.530388 -149.37479 -1045.0432
63.800835 -148.73155 -1045.2643
65.582405 -149.90135 -1043.8064
66.717766 -148.51357 -1044.9655
67.238045 -146.94232 -1046.5342
69.302444 -146.30223 -1046.9855
64.64106 -151.43022 -1042.5352
64.878128 -153.04527 -1041.1608
62.505688 -151.99294 -1042.245
64.289009 -154.77913 -1039.7771
64.534782 -156.6076 -1038.3584
61.962616 -155.22615 -1039.4619
59.711517 -155.96016 -1038.8424
67.183083 -153.37138 -1040.8979
63.464752 -158.71599 -1036.6888
67.207726 -157.15347 -1038.1633
67.573288 -159.17946 -1036.9391
68.105179 -161.30865 -1035.8268
65.562462 -158.33853 -1037.1825
65.996353 -162.35558 -1034.7865
63.747097 -161.39162 -1034.8817
68.269394 -163.24226 -1034.7954
68.261391 -165.44951 -1033.5226
66.378761 -166.32445 -1032.4772
69.565369 -159.81822 -1036.9546
71.459038 -159.27808 -1037.667
72.549759 -157.51595 -1038.8896
68.626289 -155.92529 -1039.1711
35.934624 -173.30688 -1055.3179
35.901867 -175.87177 -1054.7319
38.076557 -174.32059 -1054.3809
35.552635 -178.34097 -1054.2589
35.257122 -181.04181 -1053.707
32.938362 -182.04327 -1054.1162
30.72113 -180.73367 -1055.0337
30.846836 -177.93826 -1055.7809
33.575985 -177.21669 -1055.1594
33.899315 -172.24992 -1056.2711
31.453671 -173.39159 -1056.8245
32.04673 -171.21884 -1057.1685
89.470062 -105.49686 -909.7782
16.798204 -189.50677 -987.6795
9.485281 -139.77112 -959.72833
44.256588 -133.7332 -939.77197
42.603046 -133.83623 -941.27112
42.559078 -134.65224 -943.30554
44.841854 -135.51369 -944.06763
41.984413 -132.49182 -939.39313
47.061348 -135.02901 -942.52704
49.45623 -134.9131 -943.02551
51.245567 -134.40639 -941.66992
53.632584 -135.10374 -941.72614
54.762066 -134.58557 -938.78662
54.778042 -136.32935 -943.7442
54.097855 -136.43564 -946.31671
50.526417 -133.40041 -939.42505
52.737869 -133.94522 -939.72961
45.745789 -136.28224 -946.29852
46.482037 -134.28793 -940.50604
56.733829 -137.89209 -942.40894
-41.010452 -161.20828 -943.10455
-41.095516 -158.45761 -943.49408
-42.801804 -159.87352 -943.35956
23.026028 -191.63135 -996.48914
22.156128 -191.76346 -1052.6074
34.473469 -130.0253 -940.39282
-1.6219993 -116.38414 -878.56519
-3.3529799 -115.54065 -879.73157
-5.3839107 -116.55363 -879.62146
-5.6905751 -118.29618 -878.43042
82.07576 -99.723396 -860.79974
80.009941 -97.999115 -861.7066
80.707222 -96.042488 -863.53156
78.272095 -96.314522 -863.03851
79.335213 -100.04273 -860.19928
75.749809 -97.027077 -862.72754
83.545212 -95.841187 -863.84192
85.274132 -97.083282 -862.70422
87.434647 -96.381905 -862.75238
89.698074 -94.940727 -863.06927
88.06398 -93.826691 -864.73315
84.588745 -98.889565 -861.42743
89.182274 -91.953102 -866.16107
91.504883 -91.129074 -865.97156
92.924095 -91.999619 -864.43567
92.345108 -93.937012 -862.94214
94.509895 -90.480995 -865.30109
94.618568 -93.908005 -862.20679
97.668335 -92.717819 -862.36731
96.77594 -90.835716 -864.26514
99.144554 -90.308296 -864.04755
94.842743 -95.799515 -860.59479
96.500305 -94.446831 -861.15857
98.647446 -94.464775 -860.47644
99.615532 -95.833511 -859.00134
101.73443 -96.016014 -858.23505
103.30312 -94.189896 -859.18719
105.48232 -94.400345 -858.36005
107.26884 -92.82991 -859.22528
102.57899 -97.872894 -857.13446
104.75114 -98.251305 -856.63507
