# .PCD v0.7 - Point Cloud Data file format
VERSION 0.7
FIELDS x y z
SIZE 4 4 4
TYPE F F F
COUNT 1 1 1
WIDTH 1500
HEIGHT 1
VIEWPOINT 0 0 0 1 0 0 0
POINTS 1500
DATA ascii
27.494089 -110.49651 -987.40948
25.52281 -109.80024 -985.45148
32.186768 -110.42894 -988.49902
36.216656 -108.87435 -985.9184
25.561043 -111.01595 -987.98883
26.446516 -111.95441 -990.20251
51.167767 -127.47002 -1010.9097
50.865547 -125.36869 -1009.0715
48.697079 -123.46693 -1009.3578
52.606232 -127.43221 -1008.3854
54.172943 -127.87399 -1006.0372
54.865612 -124.45231 -1003.7233
50.776268 -123.3362 -1007.2036
52.577488 -122.71809 -1004.9998
51.409893 -119.2279 -1002.8886
53.723022 -118.23756 -999.91431
52.151356 -116.33334 -997.41132
52.888729 -115.53385 -993.75732
56.286503 -116.50269 -992.20923
48.395828 -115.27445 -997.46558
45.260456 -116.08672 -1000.7607
45.462646 -113.95508 -995.37024
48.016346 -118.02176 -1003.3109
51.362564 -114.09966 -990.57617
47.847797 -113.03313 -991.11603
53.959496 -115.3209 -990.88574
-44.89143 -150.56108 -974.41095
-47.992065 -151.19583 -973.9718
-50.419998 -148.96315 -975.6286
-49.321564 -144.99789 -978.40894
26.213215 -140.28775 -955.03143
23.648613 -141.03319 -956.30609
23.601097 -141.30595 -959.10809
19.464188 -142.53516 -961.52484
21.218138 -141.69485 -955.04236
69.74649 -79.802612 -958.54382
68.977654 -81.871185 -960.30212
66.080009 -81.79763 -960.83826
64.396614 -84.96785 -963.10077
63.672916 -80.535133 -960.20911
60.91362 -79.990417 -959.82428
58.569733 -78.315727 -958.35388
58.861187 -82.439247 -961.427
56.572014 -84.131386 -962.23077
54.919903 -86.689026 -963.73944
56.339317 -88.180176 -965.25183
54.783741 -90.857407 -967.96277
60.449409 -88.453766 -965.39404
50.955597 -90.192215 -967.23419
62.386929 -91.481583 -966.97937
53.764568 -83.054054 -961.00012
51.483639 -82.018005 -960.03192
53.728867 -80.502068 -959.24408
58.947105 -76.133972 -956.65942
56.534111 -74.895683 -955.35327
61.613796 -75.532043 -956.33459
64.497299 -76.928497 -957.43079
59.869057 -84.302567 -962.71899
53.451199 -78.214577 -957.32001
51.189816 -77.269394 -956.3457
46.922493 -78.948486 -957.60553
47.07383 -76.007706 -955.26172
53.675133 -75.775551 -955.57153
53.17786 -73.307999 -953.77277
48.101662 -72.689278 -952.71875
57.058094 -94.386703 -969.51593
54.800632 -96.890907 -970.79517
70.620361 -83.988976 -961.22546
60.923698 -94.322533 -968.58002
43.641655 -80.067978 -958.77502
39.790516 -79.076294 -957.17603
39.941086 -76.41967 -953.89905
35.917519 -77.7314 -953.20874
37.988884 -82.00293 -959.70557
33.784424 -83.125542 -959.43317
29.863712 -85.23658 -960.74139
37.662971 -84.902283 -962.09106
33.838646 -76.58316 -949.87
30.187233 -75.681458 -946.75702
35.55423 -74.387825 -946.34143
37.607735 -72.658401 -943.15082
35.123226 -72.602997 -939.48322
39.727409 -71.06752 -939.75464
41.378105 -69.338776 -936.36292
39.830994 -72.924202 -947.41418
38.91029 -69.844955 -932.41901
33.017223 -72.624672 -935.75403
32.232208 -79.447632 -953.99347
30.936501 -73.457695 -939.95197
27.578915 -74.593056 -941.93622
24.183987 -75.368332 -939.38403
22.193808 -75.991394 -934.75537
17.243303 -77.676857 -934.95807
21.868006 -76.589119 -943.22833
19.909864 -75.846443 -930.31097
22.01379 -77.543579 -946.89532
20.373272 -79.501991 -950.43945
25.965904 -77.762367 -949.27039
17.782225 -77.852242 -942.85046
12.486064 -79.741997 -944.82489
16.431091 -78.098709 -938.35736
15.72705 -80.393394 -949.90393
43.793041 -74.351593 -953.38702
40.946285 -73.665047 -950.6532
35.562881 -71.39579 -932.08112
33.968842 -71.006226 -928.44196
29.993347 -72.002884 -927.52661
26.104843 -73.19912 -926.58704
27.945826 -73.356346 -930.78693
25.924337 -74.630798 -934.00201
61.999668 -96.540344 -969.28107
29.498537 -73.563705 -935.14825
41.066833 -86.604546 -963.58484
44.977482 -85.355354 -962.38538
36.525433 -87.630455 -964.06018
32.513775 -88.858673 -964.3252
36.165581 -90.938385 -966.46509
29.020517 -90.625023 -965.32574
28.713585 -94.330788 -967.91718
27.009447 -97.517326 -970.24457
22.200592 -98.234818 -970.5968
19.251591 -94.67749 -967.94629
25.144045 -91.573936 -965.92255
31.943079 -95.888138 -969.24231
26.72316 -100.64698 -972.95184
30.631323 -102.07363 -974.68646
20.886475 -92.711205 -966.63586
22.483625 -89.513954 -964.16638
19.262552 -86.569351 -960.83185
23.443775 -86.536133 -961.39709
64.61557 -96.887131 -969.27911
66.545631 -99.85463 -970.38281
43.17836 -70.90934 -947.34674
46.626698 -69.947067 -948.62793
44.498585 -69.271591 -944.57874
46.544735 -67.402786 -941.78168
48.7229 -65.532997 -938.06012
50.340801 -66.293701 -942.35016
51.89381 -67.576576 -946.27972
42.529171 -69.596558 -941.03406
34.120346 -100.61558 -973.37842
44.347702 -66.944954 -934.59589
12.545265 -79.378235 -940.45209
9.2249365 -80.505768 -942.29724
49.254971 -81.244675 -959.36609
49.073296 -83.422409 -960.87421
48.631783 -86.079834 -962.43628
51.670776 -86.885338 -963.35468
50.276852 -88.941383 -965.45605
47.930668 -89.860008 -966.66028
43.267193 -88.839828 -965.26636
42.041985 -90.382431 -966.94977
27.523518 -103.61865 -976.12451
27.387199 -106.21812 -979.48785
30.999744 -106.91275 -981.41522
34.46143 -105.67394 -979.81641
34.601871 -107.60626 -983.27167
24.510128 -105.22112 -977.47894
52.512489 -71.207329 -951.79919
52.318901 -69.271172 -949.35986
50.592396 -72.614845 -952.95123
50.171715 -68.703262 -947.96368
67.419304 -77.780479 -957.66217
60.708015 -98.710289 -970.07721
57.772312 -99.543884 -970.67102
54.97681 -101.31715 -971.60205
55.084969 -103.78495 -972.48425
61.952797 -101.28106 -970.75397
64.688644 -101.57027 -970.99493
3.9510252 -139.4711 -990.76929
-64.789955 -132.19151 -945.78717
-64.499802 -134.65744 -948.76855
-64.187309 -136.40346 -952.42914
-63.492653 -138.61133 -948.34375
-62.784626 -139.80043 -944.16272
-63.504105 -138.929 -955.30096
-64.15242 -133.37334 -942.47485
-63.097404 -137.4507 -941.68408
-62.930321 -135.25262 -938.37628
-60.975414 -137.17621 -935.05975
-60.031643 -141.12979 -935.63477
-59.657207 -145.96068 -939.48511
-61.512527 -142.6127 -941.17944
-62.552601 -141.9436 -948.73083
20.130817 -115.61806 -994.57892
22.253744 -114.66336 -994.02618
24.060467 -115.08922 -995.6015
27.11853 -114.21729 -994.92365
30.465034 -114.96218 -997.6344
24.503145 -116.34952 -998.13354
25.316736 -117.46707 -1000.591
22.68347 -117.32417 -999.18182
32.918865 -115.78204 -1000.1775
31.31201 -113.03774 -993.84613
34.675816 -112.57866 -993.74585
32.097633 -112.03433 -991.896
28.211208 -117.01958 -1001.0029
26.74929 -118.2254 -1002.7891
10.995584 -124.1105 -1001.0769
69.544113 -122.67783 -987.17072
66.985382 -86.380745 -963.70166
35.48328 -143.42505 -971.55756
3.819627 -141.85963 -1019.1839
43.911278 -130.51785 -1028.1104
60.063576 -103.21681 -971.53809
58.107864 -104.7747 -972.30969
56.264378 -106.04796 -973.41168
53.494167 -105.68145 -974.11841
60.989704 -105.52549 -972.47076
61.229187 -107.48666 -973.86462
59.369663 -109.1284 -975.75537
57.03093 -108.31393 -974.82849
57.0009 -109.85958 -976.63403
59.54752 -100.89993 -970.78363
52.204578 -107.37525 -976.17517
49.842033 -107.28377 -977.81042
46.79884 -105.97051 -977.84692
47.744701 -104.06281 -975.33063
77.860092 -113.3884 -965.78436
76.995674 -116.15492 -964.98102
29.031246 -134.30292 -1036.0732
32.945721 -134.84911 -1038.5247
32.033398 -136.86378 -1042.2419
32.656696 -138.51785 -1045.828
36.522491 -139.22112 -1048.0243
51.483971 -132.38017 -963.54742
48.731544 -134.12328 -963.53827
47.370453 -134.28531 -961.21472
6.8328214 -161.68494 -1015.7672
-19.295826 -91.112061 -954.8476
-17.831253 -89.935852 -951.91949
-14.800817 -88.662788 -948.00336
-14.582133 -89.062004 -951.80792
-11.637974 -89.205986 -954.75079
46.901802 -84.331245 -961.51294
44.359882 -83.332375 -961.19983
84.944633 -78.438736 -953.74402
78.096581 -84.925484 -957.72894
78.703705 -87.232101 -958.1861
77.364616 -88.387405 -959.49725
78.457153 -90.366806 -959.38788
77.564041 -91.884445 -961.15167
6.5270591 -81.367294 -943.22168
3.5028839 -82.447884 -940.39099
-0.20139952 -83.783531 -938.90637
3.6413817 -82.359993 -945.15942
4.0179758 -83.093651 -949.37897
0.54173762 -83.534409 -946.81293
-2.827553 -84.65181 -947.06757
-6.1644239 -86.143227 -949.56293
-2.5089576 -84.473152 -943.13898
-5.6882386 -85.696587 -940.70636
7.2495475 -82.543991 -950.02863
9.5669785 -83.691734 -953.57654
10.536382 -80.800308 -947.258
7.5660024 -85.420456 -955.97241
3.7765837 -85.775681 -955.14154
0.80724341 -85.212982 -952.81573
-3.1622446 -86.604889 -953.86469
9.9989004 -86.110321 -958.0448
12.94105 -86.896767 -959.98828
16.012131 -88.477142 -962.40137
14.910202 -91.607559 -965.32672
15.700828 -85.765877 -959.14911
19.219707 -84.0065 -957.63715
16.458574 -83.672134 -956.30927
13.27842 -82.90992 -953.66339
9.417017 -87.852676 -960.42419
5.9811082 -90.033714 -962.51099
9.1498928 -90.01873 -962.99493
11.451122 -91.52388 -964.86426
3.378227 -87.762909 -958.42444
0.62066936 -88.65683 -958.99835
-1.9911882 -90.721077 -961.58032
-0.87329841 -93.033791 -964.83844
2.7378337 -92.569977 -964.9729
5.2907515 -94.687981 -967.30243
3.8267736 -82.392723 -937.92157
6.7347441 -81.317627 -935.76526
10.006043 -80.055222 -934.40802
13.351371 -78.631607 -933.21069
10.313034 -79.145195 -930.53345
10.815331 -79.126472 -926.06342
7.239275 -80.135704 -928.49969
4.1352086 -81.783699 -926.76105
1.8584219 -83.563408 -924.92529
-2.6721585 -84.849686 -926.53589
-6.5548196 -85.587952 -930.59204
-2.3877356 -87.60498 -922.10596
4.8483949 -83.831032 -922.81274
6.0650988 -86.709435 -919.85419
8.2040215 -83.541374 -921.58661
11.635347 -82.542572 -920.22144
14.822846 -82.159584 -918.66241
18.144283 -79.140396 -920.38971
13.21788 -84.960846 -916.55579
10.739557 -88.870995 -915.29913
3.8657737 -81.357346 -930.87531
8.8570223 -80.752678 -938.12
-5.8201022 -90.954445 -922.11212
-11.55334 -92.47863 -925.51495
18.995934 -81.813713 -917.77557
10.47696 -80.614815 -923.34607
14.587825 -86.065788 -914.20728
2.9097686 -88.607239 -918.72339
1.0308809 -91.597366 -916.4624
-2.1038392 -95.077171 -915.46771
4.1990848 -94.190285 -913.90619
-8.024066 -86.438095 -942.74158
-9.6683569 -86.93399 -946.664
7.7038655 -94.933388 -967.68842
10.166574 -97.324379 -969.60681
14.155796 -98.128296 -970.24261
20.910824 -82.287514 -955.63147
24.387774 -81.657593 -955.76837
26.766424 -83.137306 -958.10571
27.180887 -80.234764 -954.12585
1.1540502 -82.351097 -931.3653
-2.3790345 -83.838966 -929.72095
-1.9380233 -84.004692 -934.66962
14.015785 -77.965714 -925.35016
16.460526 -76.62825 -927.61566
16.020775 -77.170959 -930.84344
9.7040863 -93.513969 -966.54285
10.530855 -95.306664 -968.06348
12.405663 -96.642342 -969.14191
14.939933 -96.291023 -968.94141
16.837088 -97.775787 -970.05896
16.319698 -94.336929 -967.60571
18.298582 -92.723839 -966.5285
19.56608 -97.506012 -969.93799
21.266565 -95.854668 -968.82257
11.823517 -98.57206 -970.50763
13.580456 -100.15828 -971.65839
15.79192 -99.559547 -971.32837
16.551382 -101.37625 -972.71228
20.988443 -101.41462 -973.13354
20.879713 -104.32251 -975.78668
12.426542 -101.83826 -972.8009
10.17914 -102.3754 -973.0968
8.0434809 -103.34885 -973.64526
12.453156 -103.66994 -974.11041
14.462374 -104.85226 -975.28424
11.918015 -105.61057 -975.57031
16.440525 -103.50293 -974.37878
18.916731 -102.71617 -974.02618
8.3944883 -105.20532 -974.85107
6.880918 -132.93925 -1011.6086
7.8438506 -133.03275 -1014.1458
6.8811193 -134.90572 -1015.6094
6.6068163 -136.26328 -1017.7665
5.508985 -136.57584 -1015.0068
4.817625 -136.64848 -1012.5886
3.798588 -138.51022 -1011.6716
5.275867 -135.05859 -1011.1511
22.2512 -121.57487 -1006.9513
19.832466 -122.73746 -1007.8999
22.408295 -122.74856 -1009.2575
49.80032 -103.00028 -973.85254
-5.4959702 -108.64227 -976.1087
4.8537068 -153.34421 -1005.0532
5.8340993 -155.65369 -1006.4111
3.3554132 -150.7495 -1006.5584
4.9176111 -155.96535 -1009.6528
4.1619754 -156.00725 -1012.3852
3.9026148 -157.43941 -1016.2319
2.6715515 -147.94286 -1006.8744
2.739614 -149.84129 -1009.29
2.5721385 -145.79901 -1005.1849
2.8622768 -145.73654 -1002.3973
2.5946608 -143.53418 -1003.3401
-46.302967 -146.24995 -977.72003
-47.083092 -143.72266 -979.10413
-50.271935 -142.46898 -979.58362
-52.380909 -140.08368 -980.29822
-52.377708 -144.04626 -978.44043
-56.034569 -144.32098 -976.62292
-58.398117 -140.6373 -976.56628
-56.958794 -146.66312 -973.69135
-59.310478 -145.44456 -970.09125
-55.359921 -138.58884 -979.96484
-59.353416 -147.4301 -966.63135
-60.552418 -145.26636 -964.89502
-61.974018 -141.33183 -964.16675
-62.318893 -138.6729 -966.70447
-62.935715 -138.70659 -962.53796
-63.265156 -138.58545 -959.7569
-62.803799 -140.94862 -957.84497
-61.689209 -144.37122 -958.65723
-63.70768 -136.26645 -961.31567
66.896126 -116.11623 -985.96515
91.608459 -106.51058 -948.15735
22.229435 -127.62971 -1018.6619
20.694128 -127.11135 -1016.7217
21.625481 -125.909 -1014.9411
42.51038 -126.78103 -1021.5673
-24.572435 -153.06464 -962.22076
-23.931847 -153.83821 -959.67358
-22.397285 -152.74817 -961.35602
-20.846323 -151.63483 -963.05341
-26.039181 -154.75079 -958.46155
-26.480932 -155.08705 -955.77045
-28.066687 -155.00571 -953.12854
-31.026978 -155.63599 -952.85608
-30.95336 -154.96501 -949.53442
-34.642067 -155.72047 -947.23077
-32.377743 -156.39764 -955.479
-31.129597 -156.17261 -957.90216
-27.310022 -154.34099 -950.56854
-24.519583 -153.47414 -947.38654
53.956844 -131.07513 -922.75977
54.429596 -130.0685 -920.15851
72.81086 -115.14559 -968.98297
32.761349 -132.93495 -1034.7074
80.678627 -93.989441 -958.40692
52.307682 -137.09366 -951.07501
52.188725 -134.75204 -952.55316
55.737305 -132.07941 -953.66241
50.389008 -133.46494 -954.22687
49.362244 -132.96953 -956.58844
50.933563 -131.89867 -958.91095
47.716373 -134.26364 -953.99335
45.229355 -134.63326 -954.65094
42.77906 -135.20181 -954.58441
46.993725 -135.37346 -951.58154
47.997585 -136.53056 -949.23279
45.237839 -135.66226 -949.70428
48.354309 -133.3817 -958.99744
45.635246 -134.64082 -959.17084
43.242058 -135.80766 -959.75525
41.604351 -137.01682 -961.6933
42.789444 -135.59134 -949.56525
40.4408 -135.89905 -947.71588
41.356514 -135.84279 -945.19104
-42.173092 -135.9814 -981.49072
29.178246 -118.15816 -1003.8251
29.615494 -119.32715 -1006.4216
31.469297 -118.05381 -1004.5634
33.01907 -116.90211 -1002.6185
34.057529 -117.73637 -1004.6518
36.861843 -117.94678 -1005.5197
38.000191 -116.97923 -1003.5023
37.061184 -115.60427 -1000.5
34.825829 -116.14604 -1001.3961
35.081051 -115.09438 -999.17468
58.970882 -138.29559 -993.86816
60.337368 -136.05128 -992.71985
-55.532406 -135.85739 -980.73645
-57.363384 -133.75504 -980.32825
-60.162193 -134.42094 -977.31342
-59.976414 -138.31126 -975.37646
-58.286087 -130.76915 -980.1803
-60.495255 -131.00462 -977.76855
-56.615978 -128.41791 -981.11261
-53.920876 -133.78752 -981.65668
-52.918991 -131.30118 -982.16962
-51.050289 -128.91994 -982.42053
-47.876423 -128.85788 -982.60718
-50.148163 -126.27518 -982.23535
-49.697433 -123.64648 -981.69635
-45.614594 -122.32177 -981.53009
-48.784134 -121.16 -981.0119
-45.574192 -118.5181 -980.26318
-51.162479 -133.96306 -982.12097
-49.637348 -136.20584 -981.8277
-48.61721 -133.77202 -982.32642
-45.847816 -132.82286 -982.43945
-52.347488 -124.54851 -981.6615
-54.331142 -122.71542 -980.87482
-56.194519 -120.95588 -979.79144
-59.479736 -119.05444 -977.50653
-59.46452 -121.90658 -978.47375
-55.045197 -125.35931 -981.35571
-53.370785 -120.19057 -980.20227
-52.225193 -117.71702 -979.21057
-51.344109 -115.67228 -978.01196
-48.560642 -115.06651 -977.90216
-54.07494 -116.0044 -977.85822
-56.901321 -116.61906 -977.58545
-46.14082 -114.21106 -977.44867
-44.980957 -111.14365 -974.46362
-43.27129 -113.78671 -977.61188
-48.016251 -109.36835 -972.31738
-46.796543 -116.52691 -979.16217
-61.497578 -120.97099 -976.35962
-50.65971 -119.55493 -980.27972
-40.716637 -114.20141 -978.33948
-37.423149 -112.84258 -977.57166
-34.039257 -111.81863 -977.22205
-38.15609 -110.77343 -975.00854
-42.158566 -116.26477 -979.5636
-40.951878 -118.34373 -980.47192
-41.322113 -110.15038 -973.81439
-51.549114 -111.2261 -973.88275
-44.486164 -134.4263 -982.12085
-44.739902 -137.03136 -981.50513
-47.480022 -137.85654 -981.41418
-46.540039 -139.86174 -980.72351
-44.799702 -141.87299 -979.83221
-45.252266 -127.72171 -982.49817
-42.75668 -128.67703 -982.45349
-40.543301 -127.60912 -982.23773
-39.982807 -124.40301 -981.93439
-45.228043 -124.96391 -982.13318
-43.249477 -123.19823 -981.78583
-59.647339 -124.97866 -978.9408
-61.08025 -126.7316 -977.49628
-62.549435 -126.15107 -975.0412
-63.617474 -127.0371 -971.92914
-63.119617 -131.11786 -971.16174
-62.770672 -123.18026 -974.73108
-63.006203 -120.31894 -973.94501
-64.129669 -119.59412 -971.35065
-64.680534 -121.99847 -969.65912
-63.529579 -116.29078 -971.39587
-64.424889 -124.79369 -969.94305
-61.955162 -114.61075 -972.71478
-62.666325 -113.28294 -970.34753
-60.704342 -115.52536 -974.72296
-60.486229 -110.60641 -969.66144
-57.734783 -110.13535 -971.09912
-43.323669 -118.26404 -980.34601
-57.761532 -126.13007 -980.42126
53.353569 -138.72778 -1024.2693
53.951195 -139.66898 -1021.9269
54.04665 -138.87589 -1018.9267
43.64101 -178.62753 -1045.0978
38.357464 -179.5762 -1044.033
-48.037174 -118.81364 -980.18073
41.824146 -130.14302 -1028.7004
11.33405 -157.42892 -1000.1008
-18.187098 -115.36802 -978.96979
-5.87958 -95.354912 -966.30396
11.45321 -126.25878 -1006.9214
11.097013 -127.38364 -1008.7993
29.383997 -138.20807 -1043.973
3.4114342 -151.45009 -1036.6088
6.065167 -147.94678 -1038.9272
8.8105145 -100.953 -972.11945
7.1213546 -99.282867 -970.92322
9.2583933 -98.949295 -970.75171
4.5841222 -100.61549 -971.54364
54.412518 -150.57997 -1045.1692
53.714348 -149.89688 -1049.205
54.384346 -151.21346 -1053.9637
51.716908 -148.30167 -1055.8459
55.027302 -152.81003 -1050.6642
55.943268 -155.80074 -1049.2794
56.137466 -157.92159 -1047.2356
56.605804 -160.8531 -1047.4176
56.114048 -163.07878 -1045.4642
56.057796 -166.04498 -1046.1676
54.55101 -168.43616 -1044.5536
54.355972 -170.91432 -1046.1675
51.354225 -174.04257 -1045.2455
57.976799 -162.03009 -1050.4833
59.368069 -164.94206 -1051.5037
58.750191 -160.2818 -1052.7557
59.7449 -157.07912 -1056.449
63.617752 -158.504 -1058.3458
65.51181 -162.49408 -1056.8351
68.362656 -165.55904 -1056.4974
72.024521 -167.85478 -1056.6735
57.105782 -167.27229 -1048.3684
49.001743 -177.12231 -1046.6544
52.630302 -175.7478 -1048.1355
76.043259 -169.28009 -1057.2859
79.747124 -167.11096 -1058.8717
79.473228 -172.09155 -1057.7196
71.621674 -171.95638 -1055.5466
59.999683 -162.84279 -1052.9633
62.55117 -163.93854 -1054.6234
83.130531 -166.34769 -1060.1388
84.997841 -162.86916 -1062.3439
90.174881 -161.91212 -1064.4459
85.586136 -169.55156 -1059.4196
89.552063 -169.70561 -1060.3368
91.250359 -166.39645 -1062.4625
93.963966 -169.02557 -1061.9506
98.210281 -167.89111 -1063.6801
96.620041 -171.87552 -1061.2438
94.743019 -175.30774 -1059.1257
98.357292 -164.56598 -1065.4889
94.857071 -161.69389 -1066.1039
98.84494 -174.54958 -1060.6403
101.79285 -177.20625 -1061.0253
101.79458 -174.33849 -1062.0167
103.13126 -172.13597 -1063.6543
101.15057 -169.08414 -1063.9119
50.118519 -172.61407 -1041.5582
46.753067 -173.96306 -1039.3712
44.465534 -173.19121 -1035.5217
47.836391 -171.4904 -1035.6873
105.7054 -173.1785 -1065.5894
106.84379 -175.83592 -1066.2699
105.66399 -178.03522 -1064.0494
57.432873 -153.34651 -1057.5671
94.637672 -178.35133 -1057.9905
97.021919 -181.28654 -1057.9686
94.038605 -181.77806 -1057.0977
59.383327 -127.0675 -959.36426
60.617954 -125.95726 -961.29388
61.539654 -124.99796 -963.8988
59.390289 -126.1797 -963.63959
28.742443 -129.18594 -1025.6912
29.595814 -127.71841 -1023.2521
46.320972 -178.17033 -1046.0952
44.842556 -180.7814 -1048.4426
45.387432 -176.94211 -1043.6088
41.693134 -177.50798 -1042.015
38.676064 -177.01949 -1039.63
37.940079 -175.35985 -1035.8876
36.489899 -178.69264 -1041.8165
31.800758 -178.7451 -1040.3406
31.055845 -176.92113 -1036.2981
36.783726 -174.30896 -1032.9716
39.428776 -172.33043 -1030.2009
46.842155 -181.63611 -1050.0265
43.170059 -184.35216 -1051.2109
38.018494 -186.20465 -1051.7622
50.799999 -182.59457 -1051.8407
51.256126 -186.87469 -1053.9912
34.790245 -183.3967 -1048.5232
53.49305 -190.08702 -1055.2649
57.54224 -188.95253 -1055.3055
52.171265 -194.19591 -1056.2867
60.263401 -192.3288 -1056.3145
64.732018 -192.04532 -1056.4579
48.291409 -194.56525 -1056.2644
46.597622 -198.22322 -1057.3158
48.541927 -201.50316 -1058.5311
46.425941 -205.24924 -1060.4427
47.882851 -208.27727 -1064.3141
53.299603 -202.05247 -1059.1989
55.349518 -205.30202 -1062.1102
57.016991 -204.22815 -1069.8036
62.076954 -202.90045 -1069.3848
68.235947 -203.30867 -1067.4404
66.328484 -195.2282 -1057.3551
65.004448 -198.88 -1058.7505
66.279961 -203.27745 -1062.6893
60.681091 -199.34174 -1058.6104
58.363964 -195.91165 -1057.1541
54.529259 -196.5871 -1057.0532
62.975071 -202.15274 -1060.7295
63.190926 -204.63562 -1064.1519
70.5578 -202.33008 -1062.2916
72.977097 -199.59613 -1060.0701
76.170509 -197.00514 -1058.6909
77.31105 -200.48953 -1061.5967
79.323639 -194.77847 -1058.0397
82.69796 -196.22713 -1058.9634
42.306263 -204.75449 -1059.6469
38.936035 -207.71625 -1061.824
39.644321 -201.63885 -1058.0624
35.362499 -200.71353 -1057.6132
32.219788 -203.16949 -1058.4296
27.72674 -199.60725 -1057.298
21.970863 -202.87558 -1060.0671
21.551409 -196.424 -1057.6111
33.453548 -206.82436 -1060.7672
29.37302 -208.50424 -1061.8542
24.055033 -207.62813 -1062.1072
29.140007 -211.80856 -1066.0157
32.645893 -209.29222 -1070.3815
18.029715 -191.48552 -1057.0759
26.651703 -194.68825 -1056.0221
30.123291 -191.27698 -1054.4734
27.416742 -187.71503 -1051.9863
22.369677 -186.75064 -1051.3502
24.580751 -211.16391 -1065.8009
22.107937 -208.18398 -1071.3433
77.944534 -201.78217 -1064.4301
75.577766 -199.98424 -1068.8176
78.763924 -201.18405 -1067.2915
52.310276 -207.44838 -1064.9569
58.727337 -202.60716 -1060.3303
55.962391 -202.71834 -1059.9749
46.104336 -192.11142 -1055.4292
46.701706 -187.97513 -1053.9196
42.936371 -191.73546 -1055.1039
40.914471 -195.35002 -1056.2474
39.292374 -191.48065 -1054.8048
37.221333 -188.89723 -1053.4575
34.51194 -189.43784 -1053.6053
41.66692 -198.34781 -1057.1415
33.415752 -191.93323 -1054.8251
34.941097 -195.64958 -1056.1458
41.572571 -157.0849 -1001.0504
43.970551 -156.49083 -1001.8092
45.885315 -154.80315 -1000.4248
46.01601 -175.48306 -1041.5961
-5.7357979 -94.596619 -919.64923
-9.1444893 -95.502113 -922.77881
-11.080418 -100.71041 -922.01294
-12.952992 -96.800026 -924.37512
61.367512 -165.74893 -1053.1664
62.416412 -168.44435 -1053.2336
65.069893 -169.1931 -1054.278
66.514183 -167.02528 -1055.3777
65.34713 -164.72246 -1055.7437
51.212112 -154.67197 -1009.9901
-48.490402 -159.57288 -956.15509
-48.595348 -159.71182 -953.0932
-50.987171 -158.93211 -949.0014
-47.930389 -159.41258 -950.17468
-55.140182 -157.28609 -951.52374
-44.911163 -158.91737 -949.45856
-41.901272 -157.51723 -945.58069
-50.484806 -159.4054 -951.50665
-52.946007 -158.55692 -950.81506
-54.698017 -157.20445 -948.63312
-53.45842 -158.43193 -953.3905
-55.564106 -156.93108 -954.14771
-57.153976 -155.27547 -952.22888
-58.856281 -152.51248 -951.87988
-57.098743 -155.23839 -955.27179
-57.646172 -154.16832 -957.72375
-58.9105 -151.61519 -958.97491
-58.403355 -151.72934 -961.9776
-58.454288 -150.26004 -964.89667
-53.660118 -158.14009 -955.88751
-56.522953 -155.2126 -947.43884
-56.029194 -153.56868 -943.79517
-50.565556 -153.94019 -940.95465
-54.540005 -150.99112 -940.47162
-58.303589 -152.5945 -946.83887
-57.323433 -151.1918 -966.87036
-55.68924 -153.25475 -966.81561
-55.191597 -154.89983 -964.38812
-56.147438 -155.70952 -959.08972
-55.382534 -155.72667 -961.74829
-56.83952 -153.88629 -962.70459
-53.521168 -154.56593 -942.85046
-50.122589 -156.75662 -943.28461
-46.513981 -156.46091 -941.92004
-43.035816 -156.25143 -941.80389
-40.470169 -154.52997 -939.57739
-41.207729 -151.77373 -935.77454
-46.739784 -150.90254 -935.75665
-37.568649 -149.10139 -933.06506
-39.470493 -156.1312 -942.92255
-36.130249 -155.09091 -942.07086
-47.899673 -146.7599 -932.11859
-44.268684 -143.23198 -929.06482
-33.579411 -153.53656 -939.54059
-35.326111 -151.82672 -936.65961
-39.627342 -145.38374 -929.78003
140.49567 -79.566101 -930.35498
-22.917177 -153.49187 -944.71405
-24.028032 -153.35034 -940.31152
-26.819366 -153.41983 -939.80048
-27.674423 -152.14912 -937.31622
-26.060244 -150.44754 -934.78046
-23.760597 -149.12872 -933.12866
-19.545181 -146.19559 -929.79974
-23.2658 -146.82153 -930.33252
-19.171616 -141.87772 -925.56067
-28.912449 -149.60327 -933.60529
-32.182716 -147.96063 -931.91504
-35.561695 -146.48404 -930.61633
-30.553549 -151.6154 -936.49988
-29.067333 -154.13251 -941.5589
-28.907133 -154.55328 -944.41119
-28.740086 -146.8721 -930.61993
-28.663826 -143.37064 -927.7074
-27.249693 -140.49792 -925.66638
-23.187809 -140.87422 -925.19238
-21.235268 -138.11777 -923.16492
-23.200701 -134.41835 -920.36188
-19.098242 -131.11931 -917.53412
-26.213001 -154.00453 -945.6944
-30.578199 -154.76598 -946.789
-35.651451 -143.58441 -928.44507
-31.834726 -141.90236 -927.18921
-34.836617 -139.62848 -926.16669
-34.453793 -137.34085 -924.97321
-34.541794 -133.47789 -922.20807
-31.047096 -136.17673 -923.61841
-27.983007 -136.09337 -922.88068
-26.314619 -133.67404 -920.27289
-29.174276 -130.19197 -918.58215
-36.972172 -138.31129 -925.71661
-40.935654 -136.68393 -925.70361
-41.606888 -139.79501 -926.9834
-33.257652 -131.19582 -920.25598
-27.746782 -126.61565 -917.47382
-23.447157 -125.63869 -916.64777
-21.698771 -120.87656 -917.33002
-18.899096 -139.52242 -923.80725
-14.19918 -141.41418 -924.9444
-14.94572 -138.18526 -922.59399
-15.392999 -134.91669 -920.4278
-10.523389 -134.62086 -920.05963
-5.7323217 -135.84831 -920.81189
-10.030706 -143.00171 -926.40192
-2.1337571 -133.21184 -918.94232
-5.0311379 -139.91141 -923.64502
-8.8939743 -131.30841 -917.40088
-8.4454346 -127.93611 -914.52734
-6.6726656 -123.46607 -912.42267
-13.298472 -128.37923 -915.18085
-15.807902 -124.45288 -914.68896
-13.420742 -120.42862 -914.6864
-17.944881 -121.5791 -915.98767
-12.582638 -117.2331 -915.67389
-14.562974 -114.11065 -917.77869
-12.022735 -109.94891 -918.62592
-18.790199 -114.46356 -919.24725
-21.049129 -111.84156 -921.17908
-19.022121 -107.80415 -922.16699
-14.716553 -106.29849 -921.13715
-20.929531 -104.59717 -924.28857
-25.137018 -104.57078 -925.34198
-29.509031 -104.24246 -925.46698
-27.16375 -107.96164 -923.49847
-9.8795834 -145.92398 -930.61877
-25.334745 -110.50692 -922.3269
-26.689531 -114.39625 -920.31848
-26.165112 -118.19779 -918.71118
-0.37882477 -140.5927 -924.86694
2.2778003 -134.55032 -919.65845
42.83181 -148.33427 -984.89996
47.923397 -130.78218 -922.82111
48.267738 -129.9119 -921.04474
49.481659 -129.03926 -919.38336
49.736713 -127.72931 -917.27075
47.457161 -128.12883 -917.86273
44.863899 -128.36525 -917.55823
40.924461 -129.12181 -917.40198
39.491322 -131.23126 -920.61279
54.84428 -157.58528 -1029.4622
53.925121 -159.50449 -1027.7638
52.920448 -162.11238 -1028.8152
50.440784 -163.86346 -1025.5465
52.290104 -164.19066 -1030.915
52.28455 -165.62474 -1033.6733
50.962986 -166.33086 -1031.4091
49.079487 -167.30099 -1029.3986
49.217819 -166.0332 -1027.2837
47.169918 -167.28056 -1026.5952
44.97237 -168.50677 -1026.5613
42.746773 -169.46373 -1026.5931
40.359283 -170.32828 -1026.7391
45.922249 -166.94737 -1024.5815
44.621796 -166.39421 -1022.275
47.086647 -165.38289 -1023.0253
49.193867 -163.89278 -1023.31
44.547211 -169.78522 -1028.5894
43.872192 -171.185 -1030.7518
43.270714 -172.48877 -1033.0643
45.951302 -170.00314 -1030.3265
47.732334 -169.74106 -1032.0181
49.16803 -169.6459 -1034.0977
50.02573 -169.95958 -1036.3406
51.605648 -168.99875 -1038.2341
50.860691 -167.85425 -1034.1002
51.621262 -170.39677 -1040.7218
41.681477 -172.04382 -1030.9611
37.917053 -170.6474 -1026.0548
37.132362 -169.74409 -1023.8705
38.664616 -168.5045 -1022.1783
37.583733 -167.59149 -1019.7516
41.42255 -167.99562 -1022.8354
39.170734 -166.30504 -1017.9637
41.894627 -165.90717 -1018.9515
44.452389 -165.10843 -1019.4668
46.550526 -163.49754 -1018.5545
34.749508 -170.09882 -1023.5116
33.305771 -169.23445 -1021.1258
28.962393 -169.67319 -1020.5899
32.785248 -171.26706 -1025.1447
30.999611 -172.36043 -1026.8076
28.004509 -172.28795 -1025.8905
33.803703 -172.12462 -1027.251
27.784107 -170.99663 -1023.1255
53.147209 -166.69745 -1038.6021
53.46946 -164.93481 -1036.5184
34.917072 -168.06844 -1019.4199
36.33152 -171.8727 -1027.7672
38.384861 -171.6528 -1028.2903
40.5881 -171.29427 -1028.7745
33.653618 -167.34613 -1017.3668
31.318483 -167.32596 -1016.4307
34.690212 -166.14725 -1015.3824
33.960865 -165.17186 -1013.0998
31.43273 -165.03389 -1011.8444
29.680101 -164.14732 -1009.5161
34.636585 -164.0712 -1011.1171
32.580875 -163.83157 -1009.7535
37.152721 -165.75702 -1015.7814
29.638855 -168.46716 -1018.2314
26.799294 -168.71284 -1018.1265
23.943911 -168.03804 -1016.4359
20.75815 -169.17786 -1018.7047
30.041706 -166.46992 -1014.3152
27.613775 -166.50616 -1013.8387
25.733593 -165.77457 -1012.0828
25.789423 -167.34001 -1015.2192
27.194107 -164.63135 -1010.0084
37.133698 -163.19055 -1010.545
37.720634 -161.91551 -1008.2664
35.666168 -161.63483 -1006.5963
21.847282 -170.76471 -1022.034
16.898737 -169.16042 -1019.1107
14.46381 -170.38109 -1023.0894
40.257469 -161.59213 -1009.175
42.212383 -160.34358 -1008.0807
41.542942 -159.3606 -1005.6324
39.429592 -159.49571 -1004.4428
41.671059 -158.1508 -1003.2949
37.641685 -160.66495 -1005.733
37.546562 -159.36496 -1003.0962
35.347782 -159.36899 -1001.9957
33.493214 -160.28322 -1002.9896
25.762691 -171.84923 -1024.5562
25.065018 -170.69765 -1022.0304
47.764568 -168.79208 -1030.1991
48.430843 -163.08609 -1020.5007
47.246849 -170.89008 -1033.6925
45.616322 -172.14546 -1034.3757
-9.3314629 -92.271034 -961.83929
48.100533 -174.15381 -1041.4014
48.806427 -172.68611 -1039.5958
47.715466 -172.42607 -1037.4609
45.725086 -173.48808 -1037.3256
44.770386 -174.93965 -1039.379
43.650417 -176.28714 -1041.0612
43.519165 -174.40729 -1037.2784
40.606281 -174.8557 -1036.271
42.252613 -173.89917 -1035.2819
71.229691 -114.74184 -971.03546
77.752037 -59.522293 -930.75787
76.206505 -59.546715 -927.72369
34.382252 -79.014107 -910.18781
21.951899 -139.43985 -1042.5896
21.734549 -140.94638 -1045.454
18.429331 -143.95583 -1048.9977
15.043064 -143.93298 -1046.0863
11.425955 -146.53577 -1046.5442
22.77092 -149.84848 -980.18018
-59.455395 -113.49386 -973.98651
-56.872383 -112.65487 -974.45459
-55.374481 -114.1415 -976.18115
-53.945496 -112.16772 -974.56769
-58.019733 -111.55769 -972.71722
78.940033 -78.573288 -897.84283
79.83429 -75.994278 -898.65802
81.212196 -73.487198 -899.66437
82.3256 -75.207222 -898.53955
77.207924 -77.023956 -898.6803
74.643845 -77.736801 -898.87677
75.667374 -75.300682 -899.8869
73.797638 -79.996727 -898.17816
76.364471 -73.222008 -901.09955
78.431267 -71.612061 -901.82733
75.773193 -81.766083 -897.4223
75.54953 -84.364021 -896.93506
77.547119 -86.114548 -896.33881
83.220818 -72.069382 -900.10474
83.897438 -68.933853 -902.53021
73.462425 -85.29509 -897.03021
71.196426 -83.954308 -897.62585
71.701408 -81.377197 -898.13373
70.441338 -79.719025 -898.97534
69.528893 -77.349525 -900.39459
79.690521 -84.881851 -896.2804
71.589134 -75.855942 -900.62323
48.818798 -111.46494 -900.63434
73.963219 -59.977821 -927.86707
72.399918 -60.384083 -929.9798
70.11396 -60.912598 -929.84747
73.389153 -60.517666 -932.28973
75.794434 -60.183121 -932.5979
72.46402 -61.210381 -934.44025
70.219353 -61.743374 -934.74341
68.858101 -62.534859 -936.66699
67.705536 -63.431519 -938.89734
67.67894 -62.240269 -934.72552
65.344978 -62.62352 -934.74292
63.256493 -63.17186 -936.35785
60.075424 -63.121525 -934.78735
55.891331 -63.46162 -933.76202
52.001663 -64.135887 -931.69336
49.760788 -64.797859 -928.43732
51.045197 -64.975143 -924.09235
68.920349 -61.63102 -932.88409
65.012978 -63.64119 -938.64093
63.667995 -64.533974 -940.93591
64.449509 -65.695869 -943.58875
61.021584 -64.587555 -940.92059
58.189915 -64.49485 -940.37665
55.536648 -64.474869 -939.47601
56.590675 -65.335045 -942.46545
57.381115 -66.276627 -944.88879
59.531132 -67.894119 -948.03986
66.363625 -66.797432 -945.54028
65.513351 -68.736313 -948.69391
52.541294 -64.867828 -939.14728
60.190598 -66.389671 -945.27466
54.665058 -66.566826 -944.95923
62.004902 -65.362839 -942.93042
68.507919 -69.436096 -949.20953
57.06673 -69.27021 -950.01843
60.849384 -63.462227 -936.96967
63.795349 -69.850494 -950.48846
62.416145 -71.396652 -952.46979
59.911358 -71.820824 -953.00476
62.293663 -68.556511 -948.89917
18.79554 -100.95985 -972.55054
20.999794 -99.631432 -971.64417
23.663916 -100.65759 -972.71863
7.6792073 -144.45659 -935.57391
85.874779 -84.21949 -955.53705
-21.186636 -152.98242 -950.58179
-17.805151 -152.06641 -949.6438
-13.735147 -150.81696 -948.3811
-16.756098 -151.93536 -945.26794
-10.658312 -150.08136 -945.80475
-10.938658 -150.72025 -941.62396
-15.12143 -151.14398 -939.01715
-11.538209 -149.74147 -937.70575
-8.5706043 -148.02554 -935.42163
-5.0639777 -147.77007 -936.72675
-1.3176229 -146.34819 -935
-17.367249 -152.39543 -942.83948
-20.224743 -153.06624 -943.48291
-7.0493836 -149.37796 -942.41748
-3.5429184 -148.02946 -943.25995
75.278259 -177.88281 -1078.9669
72.528839 -179.18657 -1078.2804
70.137489 -177.608 -1078.8805
70.489784 -180.61098 -1077.5736
68.605507 -184.93076 -1075.6765
63.861824 -184.54768 -1076.1102
60.081005 -189.13139 -1075.0092
70.371033 -189.03944 -1073.9158
67.686035 -193.21136 -1072.2657
62.35527 -193.06606 -1073.0531
62.209602 -180.47752 -1077.9087
57.267929 -179.13422 -1079.4877
53.676769 -183.47408 -1078.8972
66.987312 -177.87418 -1078.7024
64.615494 -179.10643 -1078.2267
64.591034 -181.73129 -1077.1599
66.621803 -183.26686 -1076.4219
66.083611 -185.82008 -1075.401
63.843243 -187.05458 -1075.1183
63.292984 -189.91374 -1074.0853
61.132381 -185.83818 -1076.0312
57.585289 -186.55641 -1076.606
56.452477 -191.11729 -1075.2335
52.74247 -193.23216 -1075.3893
65.341759 -191.45052 -1073.2107
68.196892 -190.52939 -1073.3483
70.496368 -192.41122 -1072.4681
74.165771 -190.04416 -1073.4581
74.467537 -193.82483 -1071.744
68.046906 -187.57611 -1074.5865
70.394073 -186.64067 -1074.9374
71.358521 -184.24127 -1076.0111
74.54744 -184.54202 -1075.9672
77.586494 -185.31471 -1075.6416
72.863937 -187.94383 -1074.4033
51.376537 -196.6944 -1074.2219
52.946358 -200.40535 -1072.2469
65.003273 -194.10693 -1072.2064
67.034164 -196.14081 -1071.2568
67.955421 -199.08156 -1070.3129
72.272194 -200.74275 -1068.9055
69.643181 -195.00256 -1071.4534
62.690968 -195.68993 -1072.0123
61.714088 -198.74008 -1071.1483
59.545444 -194.84386 -1073.0001
58.643517 -201.88115 -1070.5356
59.547863 -192.27058 -1073.9692
58.417759 -198.54916 -1071.9011
55.445759 -198.79008 -1072.4646
65.22139 -202.72397 -1068.9127
54.601276 -202.51065 -1071.0969
69.711143 -197.60588 -1070.5703
69.368324 -182.62169 -1076.6561
53.740917 -204.96803 -1069.8198
55.518764 -206.91216 -1065.5321
51.146515 -207.10123 -1068.33
48.687618 -206.46355 -1069.7122
47.477535 -202.57413 -1071.9637
44.414783 -200.4687 -1073.3436
45.616295 -208.98241 -1067.7629
75.263 -182.29343 -1076.983
62.569096 -182.64391 -1077.0096
60.199398 -181.83159 -1077.7456
59.749588 -179.33684 -1078.7798
59.619408 -176.69099 -1079.8218
57.892654 -181.40582 -1078.4674
56.092983 -183.3291 -1078.2261
54.060654 -185.80507 -1077.8937
50.017887 -186.56975 -1078.7159
45.295624 -188.01611 -1079.1833
55.238499 -181.1326 -1079.3385
51.214069 -180.01314 -1081.0399
48.354141 -177.19193 -1083.0488
48.359238 -190.22142 -1077.6079
54.858959 -178.24011 -1080.5627
56.466309 -175.04045 -1081.2393
54.40168 -172.90811 -1082.7306
49.977165 -172.84407 -1084.2402
49.399361 -169.07631 -1085.809
56.337082 -170.75377 -1082.9386
56.44508 -168.00021 -1083.948
55.793293 -163.52002 -1085.826
52.681057 -166.38586 -1085.6606
58.634594 -169.24069 -1082.9781
61.013565 -170.12697 -1082.2859
61.11853 -167.83864 -1083.2603
61.955032 -165.26677 -1084.3052
59.478706 -163.63835 -1085.1526
61.398109 -160.17046 -1086.5248
65.088699 -165.7067 -1084.1865
67.126137 -163.72975 -1085.2039
67.398788 -161.48851 -1086.2662
65.74646 -159.29424 -1087.1226
63.103489 -158.53087 -1087.2688
60.465004 -158.15897 -1087.4094
56.736141 -156.08713 -1088.6052
54.150536 -158.90054 -1087.9897
62.226486 -156.44315 -1088.1678
64.118683 -154.86044 -1088.9902
62.594814 -152.83487 -1089.8142
59.840782 -152.34921 -1089.936
63.66991 -150.7455 -1090.816
65.079849 -148.61943 -1091.8546
63.646221 -146.34581 -1092.7094
66.586136 -146.61037 -1092.9332
69.508987 -147.15092 -1093.0298
72.255394 -147.15144 -1093.2722
74.093338 -144.75436 -1094.5319
71.975929 -140.58087 -1096.9703
62.36335 -143.94092 -1093.8744
64.007202 -141.62714 -1095.4867
59.772961 -141.85674 -1095.2792
68.311905 -142.32803 -1095.4659
58.356781 -136.81511 -1094.3752
56.208973 -137.31198 -1089.7845
68.192696 -144.73387 -1094.0646
65.033546 -138.5961 -1096.7983
66.162758 -135.25294 -1095.5688
66.555069 -154.72079 -1089.3212
69.139168 -152.04353 -1090.8047
57.241421 -142.70819 -1094.8184
52.997654 -162.16614 -1087.0507
66.367546 -150.80977 -1091.0774
61.240005 -146.42589 -1092.4951
60.046055 -148.57271 -1091.5377
58.503227 -150.54021 -1090.7438
55.982758 -150.5766 -1090.9548
54.211552 -152.52022 -1090.4913
51.570072 -152.47241 -1091.1519
54.885944 -148.53856 -1091.9513
55.183727 -154.60515 -1089.4634
61.09457 -150.57272 -1090.7233
50.617573 -150.45607 -1092.1509
49.154331 -148.50616 -1093.4174
46.228214 -148.84291 -1094.3953
48.389523 -146.54692 -1094.8063
45.988956 -146.2285 -1096.1019
50.405289 -144.39447 -1095.3766
49.717892 -141.96429 -1096.5323
50.845867 -138.502 -1093.4885
52.803951 -144.55286 -1094.5966
54.673569 -142.894 -1095.1696
51.318657 -138.34795 -1090.4659
50.011242 -154.43777 -1090.913
50.17511 -156.9884 -1089.8767
48.04694 -158.66531 -1090.005
44.528114 -157.2063 -1091.8802
48.357502 -152.91374 -1092.0155
45.877972 -154.44678 -1092.3916
45.761257 -151.80353 -1093.3542
43.578022 -150.74352 -1094.6698
40.986786 -150.15205 -1095.9746
38.535885 -149.18021 -1097.4296
35.831314 -150.4222 -1097.5769
33.642696 -148.464 -1099.0341
40.920303 -152.62373 -1094.896
41.58252 -156.10696 -1093.3324
38.050323 -154.64507 -1095.0083
37.594509 -158.96349 -1093.3782
34.623508 -153.16675 -1096.5701
31.708031 -154.13657 -1096.7863
31.305063 -157.8624 -1095.0179
27.385298 -160.55637 -1094.0472
34.745399 -159.467 -1093.7719
31.06604 -161.80792 -1093.2123
31.693247 -165.83992 -1091.2773
28.747072 -153.66057 -1097.5835
38.566662 -161.67076 -1092.0323
41.917793 -163.27211 -1090.4529
37.602455 -165.73012 -1090.5186
52.017014 -148.37344 -1092.6229
53.931721 -156.54489 -1088.9705
53.660675 -146.59465 -1093.075
29.474636 -150.7298 -1099.043
27.919374 -147.95416 -1099.7371
23.383366 -146.04076 -1098.2565
27.773283 -144.30492 -1096.3167
20.682098 -145.46111 -1094.7892
21.234913 -145.72626 -1090.0471
19.173798 -147.13806 -1086.1405
21.742237 -148.30045 -1081.5811
14.551056 -148.8428 -1087.1229
11.789363 -152.05481 -1083.9155
14.044685 -152.72374 -1078.7754
11.849729 -149.95627 -1091.6769
14.183372 -148.44392 -1096.3174
10.470334 -153.44318 -1097.0063
8.4100904 -155.69814 -1085.6965
6.406889 -159.09639 -1090.0282
8.8716898 -158.31381 -1095.5342
13.690502 -157.98299 -1096.686
17.842257 -159.25267 -1095.3748
17.188625 -163.21649 -1093.3746
20.692322 -165.50087 -1091.9269
15.028774 -166.47229 -1092.1503
21.300529 -157.92401 -1095.8167
25.258263 -157.41954 -1095.8424
22.766544 -151.29231 -1099.3022
18.83522 -152.11113 -1099.1786
47.246277 -141.58447 -1096.8269
48.024734 -139.07492 -1093.452
45.997746 -143.64661 -1097.011
44.43602 -141.27512 -1096.7754
41.52869 -141.29514 -1096.7223
42.740696 -140.11223 -1093.8057
46.0028 -139.32555 -1091.9242
46.619572 -139.51695 -1089.1534
41.832138 -140.28259 -1090.5156
39.473576 -141.10091 -1089.1481
37.067192 -142.26125 -1087.282
42.030445 -140.97107 -1087.3987
44.234261 -141.17252 -1085.323
41.886032 -141.91229 -1084.8525
40.012341 -143.10493 -1083.2089
37.007679 -144.13539 -1082.5238
35.992207 -146.04054 -1078.5377
40.908165 -146.13536 -1074.738
31.6546 -147.49872 -1077.1306
42.404797 -143.34142 -1081.3961
42.766178 -144.71712 -1078.1096
45.054283 -145.55264 -1074.1655
49.13633 -145.27264 -1072.9005
44.851673 -143.61188 -1079.7214
48.099674 -142.283 -1081.0801
53.499973 -144.411 -1073.6455
59.030781 -144.12762 -1072.9165
34.373852 -142.90262 -1087.4481
49.996674 -142.86783 -1079.058
53.391212 -141.65437 -1079.9611
51.539417 -143.87094 -1075.8878
48.762688 -140.98306 -1083.415
51.372993 -140.11884 -1084.0178
54.144417 -139.20082 -1084.5809
56.819717 -138.05412 -1085.9034
60.325893 -138.36613 -1083.283
57.490036 -140.8456 -1079.6259
60.718075 -141.79568 -1076.8478
53.492535 -140.46202 -1082.233
54.765266 -138.12415 -1087.1333
53.599113 -141.19626 -1095.7477
53.151012 -138.31372 -1094.4774
53.913719 -137.57579 -1091.9124
56.302029 -137.26712 -1092.9952
58.971424 -136.5938 -1091.3688
61.075081 -135.95567 -1093.0303
55.475269 -140.70018 -1095.5981
57.783112 -140.58296 -1095.8672
59.685154 -139.33144 -1096.0905
60.205578 -137.33012 -1095.5314
24.137255 -163.81836 -1092.5583
58.910316 -146.61815 -1092.4139
56.317165 -146.80438 -1092.5167
57.576378 -144.83652 -1093.4685
49.108482 -139.11134 -1088.3213
49.893177 -139.65224 -1085.9226
62.35117 -137.11424 -1095.738
63.677681 -135.2769 -1093.8923
25.867264 -155.12399 -1097.1185
37.769485 -168.45093 -1089.2672
40.148018 -169.58115 -1088.303
43.087402 -171.41016 -1086.8582
44.997547 -174.81259 -1084.9755
37.583084 -171.00389 -1088.1621
35.834126 -174.86809 -1086.624
34.646973 -172.11314 -1088.0404
31.210688 -170.98697 -1088.8706
30.391272 -168.33739 -1090.1884
29.316608 -173.26346 -1087.8444
27.610937 -167.79002 -1090.5699
40.981445 -175.89706 -1085.4108
40.447636 -178.64273 -1084.2394
29.08699 -176.06676 -1086.4753
31.270514 -177.94637 -1085.4969
26.83252 -177.68121 -1085.7638
24.337826 -179.30722 -1085.0446
21.70892 -180.93268 -1084.3759
24.594584 -181.8591 -1083.807
27.540253 -182.90585 -1083.1815
18.953058 -180.26096 -1084.8701
15.757327 -182.43016 -1084.2194
24.26161 -176.59433 -1086.3571
21.703398 -175.39926 -1087.0271
18.814753 -174.64815 -1087.5967
24.015995 -173.83789 -1087.7087
23.511183 -171.06828 -1089.1083
26.435928 -172.58054 -1088.2635
20.76582 -170.2439 -1089.6411
18.303064 -171.36522 -1089.2832
15.228515 -170.12001 -1090.3342
11.433729 -173.23419 -1089.2753
5.1187649 -175.02858 -1088.5734
7.3493104 -171.08435 -1090.6844
26.980608 -185.23183 -1082.0378
28.626276 -187.82944 -1080.6327
23.87656 -188.18144 -1080.7153
19.327396 -176.75256 -1086.531
23.516518 -190.7525 -1079.4707
20.871738 -192.11029 -1079.0243
23.517143 -193.5136 -1078.1315
26.288734 -194.82872 -1077.3252
29.01033 -196.02672 -1076.6182
32.928501 -198.48561 -1075.259
35.46254 -201.9608 -1073.4971
23.734192 -196.29573 -1076.8555
20.413647 -199.02586 -1075.9095
23.543804 -198.97729 -1075.6632
26.878128 -201.16115 -1074.4039
28.258278 -205.28929 -1072.4386
16.99769 -203.05348 -1073.5393
16.306164 -203.8325 -1068.1024
14.941529 -199.85378 -1065.8802
13.471655 -195.5002 -1064.5636
17.901346 -202.37524 -1063.2773
15.528958 -193.68225 -1060.6532
29.058388 -193.47488 -1077.8146
29.02051 -198.67464 -1075.3936
11.594584 -197.07555 -1068.2592
7.0640082 -195.17673 -1070.8384
9.9774246 -198.55507 -1072.6606
6.1316271 -190.97285 -1068.6156
33.949558 -176.871 -1085.8442
18.582762 -190.03334 -1080.236
18.690071 -187.42599 -1081.4923
15.695822 -189.59854 -1080.7947
10.481713 -191.28212 -1080.2433
12.46072 -188.71405 -1081.4907
11.631672 -185.60681 -1083.1359
7.352612 -182.68112 -1083.4462
3.0514946 -183.55338 -1081.1686
-0.94528085 -180.35434 -1081.5925
-0.76035547 -176.2462 -1086.3337
3.7644329 -193.07675 -1078.1031
8.0661373 -178.92079 -1086.3608
0.70439428 -187.3175 -1078.7173
0.099602059 -186.47087 -1073.4432
2.9889743 -186.22057 -1069.5571
21.202341 -186.23961 -1081.839
18.374575 -194.09756 -1078.368
15.325726 -195.1823 -1078.1831
12.373778 -196.62677 -1077.6652
18.501326 -196.6544 -1077.2362
12.660087 -193.78934 -1079.0057
17.425768 -199.1351 -1076.2686
14.080911 -200.79428 -1074.3265
1.3937672 -181.51375 -1072.5939
2.9873722 -177.29884 -1071.3944
-0.13839455 -177.94667 -1075.3947
5.4665771 -177.18091 -1067.4113
1.5847405 -174.50899 -1074.2173
1.8736737 -171.33723 -1076.5134
2.2527075 -168.60579 -1079.9836
4.5591917 -164.95531 -1082.683
-0.99054736 -171.80392 -1081.323
4.0275002 -170.66364 -1073.6202
6.0284576 -169.59833 -1069.6876
6.1201196 -166.69382 -1073.3031
6.2077336 -164.86603 -1075.9829
8.0857344 -161.64684 -1074.7842
9.1361284 -158.51064 -1077.2792
8.8569307 -160.77576 -1070.7177
10.391689 -158.0182 -1068.4869
5.7259283 -172.24742 -1068.52
4.5713978 -165.94383 -1079.4679
6.4472342 -170.04234 -1064.634
6.1248617 -171.55635 -1060.6855
6.980885 -176.19238 -1060.4117
6.4701462 -167.62949 -1063.3297
7.0403624 -163.97505 -1063.7606
7.0548992 -161.33325 -1060.7017
5.9108977 -160.83946 -1056.0116
5.8371325 -168.53636 -1059.9706
5.1816783 -166.31601 -1056.6752
4.9214826 -169.25366 -1053.5892
4.4429698 -167.70763 -1049.3337
5.4813638 -171.9301 -1050.1661
7.1989317 -174.74689 -1047.6602
7.3213272 -164.86028 -1067.1946
8.4005852 -159.62755 -1062.8739
9.615572 -158.55965 -1065.4016
9.7329206 -157.33321 -1062.6005
12.38011 -154.2683 -1061.9213
9.7021694 -155.68921 -1059.048
9.6179953 -154.24661 -1056.4153
8.0749531 -156.71529 -1056.8529
14.253092 -152.36006 -1060.5736
13.761294 -151.20988 -1057.5952
14.904382 -148.49905 -1054.1128
17.306917 -150.73976 -1060.6548
20.890427 -150.45297 -1063.9337
19.585407 -149.21196 -1059.4482
19.697529 -147.73407 -1056.6283
18.314068 -146.87891 -1054.0891
19.837626 -144.73068 -1051.3145
23.777868 -143.98793 -1052.3375
27.440582 -142.23093 -1050.9167
25.693508 -145.51768 -1056.261
23.009825 -146.87895 -1057.2938
25.410145 -146.76378 -1058.5712
25.645126 -148.31297 -1062.281
28.608639 -147.99899 -1063.7452
31.41259 -147.10344 -1062.9288
31.742119 -145.47772 -1059.1147
35.209866 -144.58492 -1058.3413
39.405052 -144.9035 -1059.6544
33.716213 -143.13251 -1055.0068
30.90806 -142.42255 -1052.6736
28.738457 -148.70245 -1066.7642
25.509926 -149.91028 -1069.6226
30.660223 -148.52017 -1069.0814
29.407721 -148.86153 -1072.1906
34.293259 -147.84467 -1069.0453
38.455845 -147.17506 -1071.0209
28.760757 -148.31004 -1076.7924
24.611975 -149.02579 -1078.1464
33.611946 -147.13718 -1064.2216
36.715511 -146.38895 -1063.282
13.939044 -153.97917 -1064.8016
12.990369 -155.0981 -1067.0681
12.447299 -155.69954 -1071.266
15.36471 -153.3087 -1074.0232
16.44668 -152.8867 -1066.6292
18.479588 -152.21973 -1068.7102
19.50432 -151.54329 -1066.2563
19.648296 -151.77658 -1071.6184
22.538052 -150.60262 -1073.9539
21.441694 -150.06528 -1077.5688
17.756994 -150.8815 -1078.7338
21.954943 -150.63651 -1066.1792
23.660612 -149.5412 -1064.0693
11.83077 -155.38962 -1076.0162
6.8353529 -166.96782 -1069.1057
5.8927789 -162.92123 -1058.0504
9.1883516 -152.94939 -1053.673
8.7427673 -151.7395 -1050.998
8.8983927 -149.45891 -1047.3806
7.3523426 -154.01517 -1051.3029
6.2329955 -156.54834 -1051.6273
4.9858761 -160.94708 -1052.0356
11.735306 -148.31052 -1050.3365
7.0010557 -150.44615 -1044.5168
5.8810663 -155.40247 -1049.0721
4.3901138 -156.65137 -1045.2307
4.2455711 -162.4411 -1049.0969
3.7022271 -161.42847 -1045.3879
3.3036411 -163.32812 -1041.7209
5.6543999 -153.37572 -1045.4563
11.365623 -152.12599 -1055.9713
39.29351 -146.78941 -1065.7014
41.999115 -146.72089 -1066.6501
45.914806 -146.51608 -1068.196
39.665878 -147.04297 -1068.6792
44.815742 -146.47711 -1063.8889
46.286736 -146.40285 -1061.5825
49.100739 -147.24152 -1062.2607
50.671593 -147.27432 -1064.946
51.798573 -148.03561 -1062.2256
52.676758 -148.85762 -1059.8544
54.51577 -149.15546 -1061.9314
57.097057 -150.22636 -1061.9689
57.305161 -151.73341 -1059.799
55.332569 -151.57071 -1056.9008
56.318439 -148.80206 -1064.0171
55.941792 -146.78854 -1067.932
58.516552 -148.01347 -1066.1635
61.135479 -148.51289 -1066.0256
64.723541 -147.40863 -1067.9252
65.213799 -144.85783 -1071.3154
69.556786 -142.92514 -1073.9209
59.64151 -151.28801 -1062.1799
62.590538 -152.08205 -1062.6824
66.558365 -154.03856 -1062.5232
