# .PCD v0.7 - Point Cloud Data file format
VERSION 0.7
FIELDS x y z
SIZE 4 4 4
TYPE F F F
COUNT 1 1 1
WIDTH 1525
HEIGHT 1
VIEWPOINT 0 0 0 1 0 0 0
POINTS 1525
DATA ascii
-16.357954 49.290127 -1044.2916
-17.617456 50.32975 -1048.3461
-15.663096 50.43919 -1049.9756
-19.191277 50.987331 -1049.7587
-17.376116 51.177097 -1051.2709
-18.419676 52.054489 -1053.1331
-20.593437 52.511818 -1053.4697
-16.966682 86.721077 -875.78009
-18.995638 85.867004 -876.2605
-21.544458 85.629967 -876.94818
111.83358 88.219505 -878.10394
-18.139402 38.869843 -976.56628
-17.969133 37.925446 -978.77808
-20.135553 37.300007 -979.74988
93.979637 93.726898 -901.65759
39.837059 59.923645 -885.28955
12.447949 73.777786 -954.85443
10.615126 73.572556 -956.56213
-45.522381 -2.4129031 -1045.0188
-45.425854 -4.6122999 -1044.0028
-53.308254 49.718231 -1032.3568
-74.277527 95.097801 -956.87817
-19.673677 70.685921 -887.66864
-18.641022 72.14975 -886.03809
-16.302256 71.487396 -885.79175
17.71509 63.065784 -957.22064
-13.028612 121.93108 -920.01379
-14.153617 121.41244 -921.89459
-11.832703 121.02596 -921.84143
-15.380597 120.80212 -923.65826
-16.886267 120.20708 -925.39539
-19.245928 120.68182 -925.2301
-18.286226 119.41828 -927.28748
-19.894917 121.93813 -922.71387
-16.558844 121.86864 -921.57434
-14.524076 119.80476 -925.35748
-85.40847 119.56611 -906.68848
-22.890398 109.79857 -940.05426
-25.301922 110.71949 -939.99146
58.611347 106.19194 -913.51166
56.382137 106.85853 -914.30206
107.80547 78.76136 -895.74475
-100.5386 102.57079 -957.69891
-26.802071 61.513123 -918.33417
-49.979233 95.910789 -953.08282
-49.543098 98.071136 -952.33264
-47.369843 99.101463 -951.75842
-45.34116 98.466278 -951.80389
-43.552204 99.742584 -951.02972
-47.826645 101.17769 -951.14508
-49.757221 102.19381 -951.146
-44.03027 101.71608 -950.22241
-45.123291 103.72252 -949.50732
-46.521709 105.33768 -948.83966
-47.311024 107.18023 -947.30847
-45.616543 107.77007 -946.05273
-41.739887 78.295631 -889.37451
-40.106663 76.65683 -889.86633
-44.889088 125.17422 -909.98718
-42.919537 124.97997 -911.15894
-40.481068 124.74824 -912.24957
-38.033558 124.6303 -912.86334
-36.049992 124.60214 -911.24231
-44.418137 125.36024 -907.4151
-33.73222 124.54968 -910.30939
-31.861547 124.30392 -911.97961
-32.150257 124.39981 -914.45123
-34.391422 124.54702 -915.44104
-35.944008 124.52448 -913.79724
-40.542076 124.98209 -909.68359
-40.977608 125.31872 -907.14185
-99.191704 113.20763 -954.59729
-71.061455 80.716629 -951.9115
36.42466 19.221888 -1058.9042
34.614742 17.458294 -1057.6177
34.840759 14.963809 -1056.4435
37.797134 14.192098 -1056.1084
39.936794 15.946835 -1056.6305
41.76165 17.202015 -1054.7556
42.024685 19.662895 -1053.2161
41.781677 16.355129 -1052.1022
41.416103 13.854739 -1051.4658
41.117661 17.016281 -1049.6199
40.816395 15.204939 -1048.6089
39.49128 18.120834 -1058.0203
39.971172 14.350473 -1046.5343
39.875446 12.183289 -1046.3269
39.354847 9.679678 -1045.5688
38.438095 9.6383657 -1043.3706
40.342541 10.759673 -1048.0438
40.412151 9.6200552 -1050.3118
39.036961 8.5839891 -1052.52
36.819702 9.1804609 -1053.8573
39.658382 7.1146894 -1049.951
40.985558 11.881334 -1050.8286
39.415596 6.8104987 -1047.318
38.743916 4.9298639 -1045.7877
38.218662 5.0252671 -1050.6194
35.808708 5.0087395 -1051.6143
37.168758 3.0663126 -1049.9961
37.948608 1.873579 -1047.3629
35.590435 7.2024579 -1052.7987
37.532246 11.474207 -1041.9625
41.21207 21.210718 -1051.0995
40.812065 23.61754 -1050.9967
39.689819 23.495607 -1048.7133
42.192879 21.431431 -1055.1931
42.046825 24.122602 -1054.9797
41.424038 20.497011 -1057.9742
40.780201 22.398239 -1059.4834
40.469597 19.022522 -1048.4792
38.990757 19.695812 -1046.1974
40.045586 12.57121 -1054.3364
34.572865 10.573486 -1054.2778
32.009129 10.641503 -1054.0925
34.221844 12.740106 -1055.4036
31.477444 8.1899166 -1052.8093
38.678226 10.861164 -1054.2101
29.795969 12.117771 -1054.7094
-55.298313 79.849335 -951.68243
-56.297413 78.262573 -950.42023
-58.403625 78.354492 -949.71057
76.09494 107.90588 -893.25592
78.317284 107.51859 -892.52972
79.439178 107.32708 -890.49481
-38.087326 53.588184 -1050.3267
-33.981037 108.30623 -944.15674
-34.195148 110.23166 -942.83533
-36.593685 110.96027 -942.57312
-38.281796 112.30709 -941.73431
-38.155064 114.24674 -940.43256
-39.821747 115.85359 -939.505
-40.3064 112.08235 -942.02551
-42.41029 112.97668 -941.74738
-84.057091 69.51033 -924.24738
102.24081 69.834175 -871.92694
102.89511 68.73111 -874.02521
101.13245 67.703445 -874.87323
98.835365 67.690788 -873.94733
98.245148 68.913933 -871.93048
-95.915085 125.99907 -932.10205
-93.495071 126.15984 -930.47437
-91.02813 126.2946 -929.95551
19.120459 59.222557 -920.64551
-3.1931372 48.904888 -987.01288
-16.284695 67.470215 -1001.8423
-18.456938 67.946106 -1002.1776
-18.129299 68.998001 -999.99854
-19.915941 69.907845 -999.11908
-44.422569 37.629753 -990.0174
-46.733868 37.950214 -991.45648
-60.508949 75.781494 -947.59937
-25.794605 54.948399 -1030.7223
-23.057337 54.638687 -1030.1464
-23.762852 86.289116 -877.46521
1.4026616 23.393259 -1028.7745
2.2270491 25.344225 -1029.8422
3.4354081 22.525919 -1029.424
-15.840631 55.272633 -1063.8531
-90.279587 74.902992 -945.58679
-4.7007055 12.368996 -1051.2924
-11.227964 118.08996 -927.28833
6.449955 104.60096 -873.03503
7.9033065 102.84081 -871.99799
10.306957 103.0796 -871.62164
11.091374 105.41843 -872.56812
9.2643785 100.81699 -871.08374
5.7651491 102.25187 -872.21912
-65.398163 87.375648 -890.94373
-53.4888 78.626106 -952.48273
-52.640129 76.489502 -952.41583
-53.417999 75.11306 -950.75214
-51.674274 74.560432 -952.737
-51.834427 77.940155 -953.92096
-50.830811 79.146782 -955.22156
-49.492424 80.465866 -956.5899
-51.053619 81.279236 -955.05768
-52.826855 82.100807 -953.8302
-51.506386 83.555481 -954.73029
-49.906464 84.865189 -955.59277
-48.153378 82.420784 -957.40454
-14.27932 67.034866 -1001.2794
-12.332582 65.817062 -1001.7262
49.151386 115.14523 -888.10211
46.764706 115.71045 -888.64014
44.254002 116.19109 -888.66693
43.2724 116.82086 -890.64014
44.902458 115.56429 -886.74023
45.284794 114.77859 -884.64038
82.769844 67.288254 -898.8811
30.957968 116.38263 -916.75836
-2.3743558 51.852997 -984.24237
-2.1112952 53.212048 -986.39435
-1.775762 55.456161 -986.65247
-2.3560178 52.347733 -988.73096
-1.8772206 57.277111 -988.38586
-2.2705004 56.662651 -991.21515
-2.3659754 54.353786 -991.79608
-105.00694 81.78788 -949.93427
-62.707367 17.769894 -1052.9187
-106.35123 119.18816 -922.08447
-107.19847 117.37485 -920.87207
-105.85156 118.32547 -919.01202
-105.58315 117.12379 -916.91797
-107.03059 115.15642 -916.72186
-108.26243 112.91166 -916.05194
-109.355 110.85209 -916.30566
-108.29694 114.20141 -918.44452
-109.21789 112.90262 -920.2251
-108.23376 115.17849 -920.48785
-108.32175 115.77356 -922.42914
-108.31205 116.27277 -924.53503
-109.15128 114.14396 -924.1369
-59.011299 35.064426 -1031.1682
-42.636715 113.59961 -889.48254
-65.315536 67.409294 -934.35339
18.444624 64.974716 -941.54333
20.117348 64.755127 -939.5827
19.628298 63.321716 -937.55963
17.266035 62.514381 -936.70306
15.531531 62.799171 -938.61749
110.90304 80.782486 -892.95905
110.28777 78.21093 -892.79303
-30.45982 86.517067 -879.31274
60.342247 79.676147 -918.72198
62.097733 80.802505 -918.08478
-13.237875 -13.796738 -1036.9713
-26.265684 69.353737 -891.48291
-28.64175 69.336227 -892.27582
-1.3377025 89.189415 -949.19055
41.737228 26.469637 -1055.0331
-90.690521 123.99369 -918.92896
-93.294853 123.11861 -918.18732
-95.457947 71.384956 -923.45111
-70.325531 78.75576 -898.46521
11.903398 59.992222 -946.52264
37.478245 118.86623 -902.36768
-32.466137 45.673416 -966.87494
-34.373531 54.138924 -1035.1322
-36.788086 54.352936 -1034.8911
-38.580666 53.831596 -1036.5077
-41.26683 12.62748 -1026.9952
-9.0436783 109.84227 -883.00342
-10.658463 107.43533 -938.29919
-12.326611 109.03697 -937.63794
-114.12384 84.887054 -929.94324
66.672989 63.225082 -897.25488
67.295067 64.220154 -899.57544
-8.5901623 33.677677 -1004.503
-9.9370737 31.774401 -1005.0789
-11.64264 30.362694 -1004.0656
-10.162121 30.882357 -1007.2657
-57.884739 25.682903 -1031.9946
-56.908527 24.904509 -1029.8828
-56.233707 22.408051 -1030.0391
-54.978031 21.530613 -1028.6108
-54.13253 22.560328 -1026.7483
-53.05447 23.153303 -1024.9053
-51.34428 21.898895 -1024.3309
-54.823914 24.620968 -1025.9629
-56.07159 25.629011 -1027.3787
-50.984348 19.975622 -1025.6602
-23.722591 30.631477 -993.78912
43.68446 58.32402 -894.66577
1.2909932 19.335913 -1027.7407
3.4707985 19.903763 -1028.6652
2.0178106 17.246944 -1027.5985
3.5224376 15.751209 -1027.8215
4.0784912 13.586047 -1027.8479
5.5206122 16.069679 -1028.485
6.0338511 18.492054 -1029.1754
6.0660596 13.563801 -1028.4174
7.1685534 11.384537 -1028.8052
8.5369453 13.327662 -1029.0563
10.828249 13.384892 -1029.6396
9.3720341 15.276944 -1029.543
9.8829393 17.450769 -1030.2621
11.887982 18.343168 -1031.291
9.8229656 19.957769 -1031.0265
7.7128582 16.980793 -1029.35
0.35180125 15.80674 -1026.9469
13.374102 16.43453 -1031.2733
15.164339 17.216087 -1032.2446
16.246422 18.8127 -1033.2703
16.900822 16.036133 -1032.5881
19.210493 15.369046 -1033.3341
17.114815 13.998943 -1031.9791
17.835478 11.960724 -1031.5776
15.274571 12.899969 -1030.9193
17.578281 9.642293 -1030.7568
19.83205 11.515857 -1032.2301
21.745432 10.262661 -1032.6211
21.699148 8.243741 -1031.9083
20.875673 13.172839 -1033.2627
18.068968 19.815434 -1034.4335
19.749628 18.528109 -1034.7039
11.652142 11.165874 -1029.605
106.40236 70.108627 -876.45203
105.41443 70.157104 -874.34576
-43.608398 123.55048 -900.75586
28.007145 16.743017 -1037.9272
30.282232 15.332557 -1038.3942
30.038237 13.218443 -1037.3981
27.875151 12.639185 -1036.2588
28.120203 10.267154 -1035.4241
26.539619 8.9441614 -1034.2272
26.01787 6.8660917 -1033.2324
28.058657 5.5760536 -1033.5721
24.468998 10.199123 -1033.8229
24.31303 12.423855 -1034.5748
0.91982085 59.674648 -942.99091
-0.045599885 59.892097 -940.8363
2.0580735 60.82019 -941.32697
-33.44714 63.190681 -1016.8815
60.836506 109.53466 -883.78351
63.05051 108.86595 -883.70642
64.786255 109.09048 -885.28015
-50.900997 72.241982 -952.3642
27.405537 -14.962516 -1035.4108
28.991758 -14.538109 -1037.8711
-73.169006 71.987206 -943.92499
-36.543312 74.893456 -992.55658
80.601021 63.012428 -882.81158
78.316986 62.81366 -882.79449
-52.40229 51.267204 -1030.7676
31.649414 11.931856 -1037.5848
31.815254 9.6760645 -1036.7545
30.364185 8.014019 -1035.4423
1.1662292 56.548828 -925.16113
-1.4878962 55.931477 -924.77679
-3.0819082 58.121979 -925.76312
-2.0624955 59.433369 -927.16431
44.443699 112.92077 -881.01398
-43.556747 63.734608 -1013.6455
-45.429733 63.800949 -1012.4408
-17.733532 44.74794 -963.95435
-17.807566 45.7066 -961.9007
-10.80483 66.107979 -999.54395
-11.864074 67.745865 -997.86743
31.452539 107.4269 -874.67072
30.880537 109.09354 -876.17468
28.520681 109.12196 -876.34589
-8.7266417 53.217804 -1059.577
24.691185 -4.1288033 -1029.9227
27.053247 -5.4773021 -1031.1816
27.509991 -8.2324762 -1031.9155
25.435276 -9.4002323 -1030.8502
24.185593 -11.388657 -1030.834
35.948242 42.862663 -1063.3331
36.351452 42.101021 -1065.1411
37.468674 40.190781 -1065.9209
35.811646 38.770016 -1068.1022
35.721073 41.824993 -1067.2122
-47.267323 49.276035 -1070.0587
96.72039 82.755623 -902.59637
94.680443 82.943748 -903.69354
93.643921 85.049957 -904.50415
-81.166809 94.492744 -957.13458
-11.247157 85.91288 -962.56079
-59.261497 36.640762 -1040.5422
-57.84301 22.187656 -1033.2935
-19.255657 13.031528 -1024.0325
-0.70629644 79.966942 -962.76105
-1.2488569 79.340508 -965.15149
0.23484336 77.900459 -966.01562
0.12426414 77.10704 -968.26013
-90.042732 96.687332 -957.86462
-84.7202 70.217705 -938.11725
27.934618 36.640926 -1047.3489
29.406981 34.735229 -1046.8108
-43.495018 60.398224 -952.62195
32.768654 15.961417 -1039.7811
75.737617 101.48772 -905.61829
-30.665745 58.823414 -939.98517
-28.744295 57.978317 -940.82886
-17.451513 123.87799 -906.87079
-9.9166212 54.268669 -1063.9609
81.648483 106.47752 -887.23621
16.183651 16.405115 -1056.4255
39.06691 34.157688 -1065.4407
-3.3898711 99.839287 -873.29706
-1.394168 99.108292 -872.59222
0.97508556 99.879944 -872.3988
-2.4261246 96.86351 -872.35297
-4.1281676 95.386734 -872.51453
-2.9067488 102.13402 -873.88898
-20.087753 84.777847 -969.6684
108.21322 85.83622 -871.91327
107.81078 87.790123 -871.8136
-12.146731 87.980659 -874.50531
-10.495456 86.487198 -874.06024
-11.175785 83.831978 -874.61011
-2.3961842 58.878822 -990.73486
-4.8390217 58.738007 -908.86212
-3.4109533 58.625164 -906.66144
36.042484 80.576195 -930.27734
-25.142128 91.056267 -959.11658
-27.520058 90.734528 -959.6496
-49.99757 49.473042 -1046.4058
-49.196457 50.029419 -1044.3708
-47.399136 51.106831 -1044.2427
-46.398239 51.634914 -1042.3895
-47.632938 51.318504 -1040.3414
-62.24865 76.989319 -948.46008
-7.6348782 44.333244 -1030.1321
14.329938 -7.8141122 -1027.7135
-45.076904 78.569298 -971.20044
-90.245392 73.361221 -913.22162
-90.28878 74.602692 -911.44904
90.942558 64.256599 -882.8576
-52.045715 62.830093 -970.17322
-53.277706 46.858997 -987.59381
37.841564 7.6505938 -1042.4128
-101.16183 123.39921 -923.09705
-99.67215 123.29596 -921.52051
-100.02724 122.16413 -919.47974
-98.074661 123.01317 -920.1062
25.773165 62.768433 -882.27936
27.847881 63.013973 -881.49091
-47.316448 14.301931 -1027.609
-48.521545 12.780333 -1028.6858
-78.026329 67.765739 -932.78802
-34.626072 31.178757 -996.1698
-35.774826 32.252899 -994.57001
-1.4647942 -9.1720905 -1029.5458
-1.3555013 -11.800825 -1030.684
31.008436 32.058014 -1064.6448
103.99168 88.301979 -898.22449
103.46273 86.429901 -899.03827
56.152 62.919376 -906.15942
54.674911 61.601391 -904.41974
40.33271 108.1637 -921.2887
-93.899734 70.990639 -925.29535
-94.424629 70.670532 -927.47784
-96.471573 70.715851 -928.37604
-98.265991 71.19236 -926.88623
-96.32634 70.374588 -930.52081
-94.413994 70.042885 -931.83472
-92.152611 70.090851 -928.66895
-100.35545 71.235619 -928.07953
-102.46037 71.649017 -927.04669
86.172256 105.44068 -887.96088
-38.155636 86.438004 -962.177
-31.898523 -3.0636258 -1045.4906
17.680908 64.990265 -951.43054
16.817362 85.802925 -868.83002
35.805645 103.56863 -871.41425
14.889403 111.95038 -877.00598
12.931646 113.01537 -878.15112
86.343132 104.68119 -883.61377
-109.65997 112.90143 -926.16003
73.596909 62.583611 -892.74921
-40.937965 62.581177 -941.07953
-42.606213 63.48077 -939.2843
-41.045979 62.169422 -943.4931
-43.297573 63.43837 -944.35297
-44.569504 64.301308 -940.64783
84.122841 72.934425 -867.71466
53.362911 112.92091 -906.91144
52.442097 114.08087 -905.18695
4.3983831 120.60861 -889.07092
-84.525299 68.722923 -928.74689
33.415955 43.911037 -1059.9409
32.724312 44.720112 -1062.0425
34.055283 44.30592 -1063.8713
30.901901 45.565376 -1062.395
29.86838 46.081985 -1064.4393
-23.334719 10.45506 -1052.0781
86.621307 105.35198 -890.28748
-35.320171 70.435699 -893.19507
22.399862 35.759926 -1065.8694
-5.32934 70.687386 -984.47302
1.1120995 116.17722 -882.75336
2.9858253 115.25741 -881.51611
87.139046 64.897614 -877.28741
16.287111 26.333971 -1060.905
-41.196793 55.604481 -1072.0673
-39.189747 56.685471 -1071.7683
53.474918 66.407509 -876.24048
-3.0913136 42.692753 -1038.0995
-104.24731 101.53394 -906.76886
3.1966071 96.101685 -943.75903
-24.000341 55.871792 -1028.1193
70.326027 108.51356 -895.27753
-5.4938722 -6.6684361 -1043.4318
4.3055701 51.443344 -1060.6478
-32.66214 59.444012 -1024.1079
-9.3320236 42.314949 -975.96008
40.627731 79.233124 -926.61041
38.259308 78.67366 -927.48242
-27.415504 113.12816 -938.52264
-29.271387 114.50761 -937.76532
-31.503035 114.22178 -938.80627
-32.572266 115.8627 -937.40479
-31.701374 117.01282 -935.65454
-30.410847 117.93747 -933.86725
-32.839767 118.27325 -934.20593
-28.158943 116.77554 -934.76617
-46.442463 120.99974 -934.59064
-44.395767 64.566582 -909.11145
-45.058239 64.053825 -911.33167
-39.484196 78.898651 -888.13916
-4.2943091 76.86586 -974.56531
-2.5815077 75.244896 -975.57916
8.2782679 50.405312 -1059.1124
6.621172 50.028744 -1057.2534
4.4471054 50.42244 -1057.4032
3.3900154 49.840408 -1055.6005
3.2223699 48.911846 -1053.6266
-20.437059 59.175114 -935.34381
-19.234276 58.266422 -937.24396
-21.853132 58.799454 -936.86279
-23.891056 59.2813 -936.40222
-25.113628 60.114136 -934.54248
-27.323784 60.641006 -933.83435
-28.095892 60.023689 -936.11108
-17.320326 57.621544 -938.33502
-17.263891 56.585052 -940.65198
-16.782881 55.586498 -942.70862
-16.777548 54.398258 -945.01398
-19.428427 56.329193 -941.60364
-15.674941 53.242443 -947.16034
-13.545861 53.313076 -947.23114
-13.37917 52.23843 -949.31433
-14.078052 51.153706 -951.33649
-11.928879 54.184685 -945.86841
-15.498013 57.084126 -939.43793
-13.535828 57.375111 -938.87341
-11.811433 58.090359 -937.28778
-9.3093052 58.104282 -937.96271
-9.9427509 58.693432 -935.86188
-14.546957 55.256947 -943.37738
-13.065605 56.15744 -941.69891
-16.795208 58.449844 -936.18451
-21.123247 57.7677 -938.98486
-44.803196 83.587532 -886.14282
23.743687 76.292114 -871.18518
-39.905197 25.935669 -1009.6649
-21.495405 89.922897 -877.31549
-20.65575 87.799385 -876.74933
15.114934 70.717247 -958.35742
-42.333996 63.408527 -928.44226
-29.178307 21.715441 -1057.9803
-31.199299 23.01214 -1058.5559
-28.776272 23.804459 -1059.0223
-29.073938 26.058304 -1060.119
-59.568344 66.428894 -919.08508
-2.1679142 35.391186 -1061.3177
-1.9647425 33.298111 -1060.4274
24.194738 112.01553 -925.95032
22.000536 112.69832 -926.00073
24.289581 113.79893 -924.32513
26.098759 114.02837 -923.3717
0.13868675 6.8333979 -1027.5925
-6.6247239 123.24615 -904.93793
-4.6279769 122.87584 -906.12982
-2.5426362 122.73634 -905.54346
-75.381561 80.446152 -899.3667
-76.378609 78.644753 -900.84778
-58.274612 72.427551 -945.01849
-39.311401 109.58218 -885.16431
-37.019249 110.51423 -885.65118
-36.691685 112.58443 -886.88824
33.146961 85.773827 -935.97491
32.525654 84.030403 -937.2113
30.768417 83.989944 -938.8374
-36.375 93.381714 -881.1214
-58.851692 34.127613 -1028.4907
-58.542137 33.620426 -1026.1433
-89.388603 125.99902 -934.81342
84.970238 67.113083 -897.62982
-50.282177 2.3507915 -1046.7572
-48.404404 1.0450521 -1046.3007
104.5802 80.872589 -898.3255
104.10941 83.01754 -898.87372
105.5992 84.482307 -898.03943
-13.989426 55.189892 -1067.1841
-50.489624 21.971483 -1056.0527
-30.308084 12.529925 -1053.4396
-29.403021 14.566641 -1054.4552
-4.6496139 33.801136 -1026.6246
-4.3378167 31.425907 -1026.5612
-2.9522128 30.269754 -1027.9335
-1.4630113 28.630175 -1028.7604
0.64595455 27.43215 -1029.816
-1.6112138 26.366028 -1027.9556
-1.6234863 31.378822 -1029.6913
-3.7104483 34.668823 -1028.5214
-2.2798233 34.433998 -1030.3723
-2.2996516 36.486614 -1031.5577
-4.7028966 36.830524 -1027.757
-5.5175304 38.171303 -1026.0745
76.031517 64.273666 -878.10461
74.027245 64.760765 -877.55743
19.864597 23.276443 -1059.9236
22.103603 22.362595 -1059.6572
23.14621 20.18391 -1058.6642
21.165075 18.455601 -1057.7477
18.836544 19.098467 -1057.907
-12.677702 69.975433 -886.06921
-10.659998 69.331932 -886.24677
-9.7221861 67.658836 -887.93304
59.012615 113.35384 -894.53778
58.501499 113.27718 -892.02972
57.756886 113.01783 -889.20679
59.800388 112.32569 -890.48633
61.715279 111.36795 -890.70465
62.675102 111.14841 -892.48248
62.345463 110.62699 -888.69159
62.007259 111.71752 -894.58984
63.448231 110.80511 -896.69983
64.740044 110.21225 -892.37231
-0.5685299 24.335333 -1056.9724
-30.626274 48.715176 -1071.4348
-47.831158 124.31976 -928.04102
-0.47947171 44.720814 -1043.9324
-113.8173 89.627945 -922.56805
-48.512863 64.714737 -910.79565
-53.916954 51.789577 -983.49902
-54.005466 53.580612 -981.99939
-6.0746317 39.433701 -999.40735
-24.248489 83.12925 -974.35266
-4.4021049 90.013695 -872.27148
-4.8648992 92.821625 -872.40442
-2.691344 91.709938 -872.03265
-0.14485966 91.060196 -872.06128
2.2803617 91.508621 -872.31171
3.6810539 93.191505 -872.03375
-0.46680486 88.761566 -872.30994
-0.62483686 93.035522 -871.90265
-0.095921203 95.179359 -871.91626
-11.501841 92.140205 -875.12909
-13.505953 92.015312 -876.09924
-19.07365 54.136612 -945.79736
-20.878828 54.700359 -945.18829
-21.032648 55.781544 -943.14374
-52.032532 5.166841 -1047.9806
-49.918365 6.2257409 -1048.5845
20.291372 25.267872 -1037.7963
20.269793 27.390614 -1038.8878
-54.973312 34.449451 -1062.1606
43.325268 112.09299 -915.5976
2.1590781 -16.89201 -1037.3772
-45.622204 42.198765 -982.23315
-113.87849 81.900955 -929.73724
-92.373444 96.047371 -900.33594
84.752411 98.388977 -904.21362
82.907356 100.10409 -903.66748
83.258766 101.51611 -901.7146
82.523666 98.458473 -905.20526
84.870049 101.81468 -900.0683
86.708977 98.645058 -902.9364
-52.376862 67.490479 -980.2381
-58.703629 44.60891 -1013.0711
-45.059608 51.776989 -1071.2898
29.72275 66.204216 -934.00281
-32.100616 64.07148 -904.20331
-23.187918 61.10284 -912.65558
-81.258514 71.515755 -910.51733
31.827646 57.961426 -891.68036
50.277031 104.65667 -872.49622
48.16964 104.24144 -871.85706
-91.461914 105.50619 -957.36053
80.163872 78.889709 -908.76178
78.921539 80.698288 -909.8028
78.175125 77.415367 -909.00873
76.030693 77.508255 -909.79297
16.840811 -10.715805 -1028.6355
-86.306175 91.162865 -956.52142
-86.141289 93.580582 -957.08319
-85.09478 103.79322 -957.02435
-98.823318 81.379471 -951.63477
-26.513323 66.768333 -895.18274
-24.369701 66.623451 -894.60199
-22.58119 65.648209 -895.77295
70.373695 62.672188 -894.48309
-54.310921 88.743141 -886.47662
10.611043 19.628342 -1057.0802
-35.157845 90.29245 -880.45355
91.758102 69.079979 -871.02063
-21.440004 79.836929 -979.867
56.878094 114.23715 -894.56201
55.092018 114.68069 -893.1131
53.962349 114.70174 -890.98749
55.202343 114.00723 -889.19543
42.285801 118.1475 -897.34009
39.669453 118.62085 -897.22156
39.020378 118.43159 -894.95624
38.454449 118.90672 -898.91522
36.367188 119.2128 -898.10376
34.826389 119.53957 -899.69751
37.094471 118.53902 -893.62061
16.977468 113.0784 -878.15265
18.423979 114.35085 -879.58771
20.579777 115.30596 -881.03931
20.459551 113.7628 -879.25598
21.248178 111.9808 -877.68494
16.316284 114.736 -879.92023
13.810816 114.96172 -880.24805
15.644915 116.07436 -881.60712
19.25029 116.79971 -882.81873
20.77767 117.64303 -884.38867
20.89496 118.82227 -886.46692
18.820448 119.48577 -887.35602
23.250921 117.39613 -884.84784
24.873135 116.17759 -883.61084
23.281742 114.99799 -881.41669
27.170782 115.65467 -883.64252
11.777215 115.47145 -881.02118
8.1730137 72.01619 -962.40906
10.432145 70.570732 -962.98938
8.788928 70.445297 -964.88062
-44.974632 80.714935 -963.31006
-43.737789 82.369331 -962.63129
-49.921612 67.628021 -944.79364
6.4399071 51.850941 -921.87506
4.0784287 50.567047 -920.41962
1.6067089 51.278496 -922.14606
3.251554 52.397923 -917.89899
0.79981786 53.287518 -917.0979
9.8228807 26.477612 -1033.5822
11.968053 25.427711 -1033.9812
-45.544155 34.380951 -997.29565
-58.569649 46.204998 -1015.5538
-106.34869 84.106583 -950.70886
-7.0153084 44.949398 -972.97388
-9.0435181 43.870758 -971.67334
-109.22285 113.67695 -932.55322
-23.921768 55.222008 -1071.1671
-86.142723 73.429718 -910.47577
-91.312691 70.875809 -921.27582
-100.43886 93.423401 -956.9425
-102.57627 94.516563 -956.65656
28.564245 -9.9344788 -1033.3246
-103.6752 114.37987 -913.47046
-102.93462 112.34229 -912.21893
-105.50924 112.62116 -912.91101
-104.64835 116.12476 -915.15436
-24.196072 123.65611 -918.61835
23.523134 18.046398 -1057.6254
-18.943295 123.77084 -896.83582
-21.266214 124.07456 -897.76508
104.74002 78.103416 -897.43018
-30.034866 71.803749 -997.83392
-105.41543 120.62441 -939.81366
-104.37406 121.19975 -941.81433
-102.70102 122.2602 -942.84821
31.318586 78.066986 -939.36542
-44.717743 17.199511 -1054.274
45.397701 109.28093 -918.10089
-36.679779 44.484928 -971.51215
8.8116751 81.159698 -947.01971
-47.116436 100.27081 -885.69684
68.460503 85.240967 -914.76758
36.055138 58.188694 -901.86743
-61.812553 74.614754 -946.49994
-58.047024 125.80617 -909.28186
31.326204 -11.408718 -1041.498
29.644745 -13.105267 -1041.131
-9.6166897 16.633606 -1053.0004
-10.845501 18.775715 -1054.1033
-4.7246017 52.588474 -1005.9783
-50.936977 33.723858 -1004.7079
109.56246 76.275101 -875.51904
95.820168 78.626213 -901.88403
38.513668 105.90176 -923.92175
27.899843 110.09866 -926.23816
45.09491 61.219109 -882.62195
43.085194 60.9063 -883.26965
47.582577 61.192749 -882.64154
48.441013 62.317963 -880.58557
50.815872 62.611675 -880.47766
-35.002232 122.374 -927.96899
19.01877 111.1469 -876.54211
75.29528 87.105698 -912.06921
101.76742 87.483765 -866.46747
56.269741 70.633224 -915.99036
-58.143539 49.386951 -1013.6157
-6.3931613 17.591497 -1053.3959
-49.393509 97.422256 -886.20941
-50.329754 125.38332 -918.51343
-52.668449 125.49068 -918.89355
-42.924629 88.649269 -957.2088
3.7037647 82.14344 -951.96179
-11.707662 23.474373 -1018.9096
-57.024712 36.942898 -1013.3362
-58.810692 43.625286 -1017.7607
-79.900734 124.75932 -936.24414
-82.148483 124.76411 -936.71582
56.325272 61.255436 -901.80029
20.402132 16.338789 -1056.6859
30.60878 63.889107 -923.56964
-40.917156 63.124649 -936.17395
0.099744797 60.662399 -980.5188
29.454193 115.80993 -918.97424
30.175957 -2.6614058 -1033.241
28.98502 -4.4776607 -1032.4222
-73.159111 101.39044 -892.97772
-75.310463 100.70627 -892.90704
-13.876599 124.6328 -901.17017
-15.014915 124.42483 -903.21698
-84.289749 99.836769 -957.36743
-104.25461 86.252556 -908.1767
-31.993416 123.18015 -924.87274
-30.617682 122.1103 -926.78711
-29.09878 122.68562 -924.87476
-32.045685 123.84342 -922.73767
-30.302431 124.00262 -921.02057
-27.811033 123.5648 -921.57153
-102.32034 84.169167 -952.72351
-104.26788 86.016441 -953.02942
-105.90383 87.889877 -953.10632
58.344917 96.617661 -869.73517
-21.407475 106.02669 -942.22778
-93.940529 108.47796 -903.39191
-3.9224226 47.415218 -968.33972
-112.96276 85.99234 -938.77576
-58.444279 39.97493 -1015.2546
61.262077 65.05864 -905.35614
-64.544128 83.126595 -952.45685
-64.814621 72.84465 -944.69116
21.557175 58.306778 -917.74066
11.926759 57.0256 -898.79724
15.824162 102.25867 -934.56201
109.72056 72.46312 -885.35565
109.02345 71.439598 -883.06323
109.2506 72.666046 -881.14996
108.48025 70.544609 -885.51221
7.3440557 85.179756 -946.11865
-16.839134 115.59792 -887.82281
-7.8050575 30.340521 -1059.145
-6.2259984 28.551365 -1058.2446
-3.8850782 28.532 -1058.2682
32.362106 64.677452 -920.31848
33.582581 64.18911 -918.0343
-51.064472 68.968254 -946.39117
-4.7174778 -11.002234 -1041.7573
-3.5752416 -9.1221266 -1042.6379
-1.1269222 -8.6560564 -1043.0211
-1.0344431 -6.4927673 -1043.9871
0.30118424 -5.1827655 -1044.738
0.18078823 -3.1708202 -1045.6357
-7.218224 -10.905897 -1041.7841
20.57979 25.598969 -1061.05
-6.8184199 45.487671 -1040.0026
-29.308594 55.968815 -945.10913
-11.485392 119.41004 -924.97266
-33.130093 62.513641 -910.19934
-33.88974 63.177948 -907.96014
-31.515846 62.698002 -908.24115
13.823478 21.547371 -1033.2169
12.084167 22.981131 -1033.031
21.073898 56.667114 -909.95142
19.726191 56.422863 -907.90387
20.23361 56.319969 -905.41089
22.668709 56.657631 -905.45459
23.975636 57.058521 -907.48395
-60.225948 23.153561 -1037.0233
-54.71209 46.904846 -1054.3912
-54.569695 46.469772 -1052.0216
-53.204926 47.19883 -1050.2064
-53.791645 46.187088 -1047.8906
-2.6951561 92.093689 -947.2793
-69.633263 68.530922 -936.69269
-19.379642 67.114723 -1004.2734
-14.647326 86.209412 -875.1347
-13.605845 83.99659 -875.20648
19.022566 57.089138 -895.31958
-35.707741 -1.8314508 -1045.8906
-25.247704 60.967041 -1019.0328
-22.968596 60.157471 -1019.682
41.500031 30.897366 -1058.8557
-58.490417 125.96423 -925.565
23.323261 60.774075 -923.87048
25.470327 61.126312 -925.57593
-66.228828 80.731117 -951.40399
-17.221241 43.45578 -966.71014
-47.305595 27.617035 -1059.0037
-63.84079 86.267349 -953.55157
-83.439255 105.52316 -956.39648
66.990242 61.997349 -887.06989
-47.171085 89.124809 -955.72314
-45.498001 90.815323 -955.42365
-46.309536 92.685478 -954.47809
-46.708725 87.263893 -956.55847
-45.187256 86.161072 -957.8017
67.144272 77.29213 -867.03168
-57.49313 6.9221592 -1034.9464
34.563278 91.645622 -932.66687
35.286121 93.697151 -931.43469
-108.12672 114.88673 -939.54456
-107.09345 117.14722 -940.45862
-106.5874 117.18339 -942.6524
-106.79967 115.61916 -944.45325
-105.46864 119.01168 -943.25177
-104.46365 119.19708 -945.41962
-107.68521 113.83196 -943.66693
-108.32938 113.30307 -941.56134
-107.60079 116.80051 -938.28534
-24.327784 50.073708 -954.94958
-21.925692 49.419804 -955.41101
-29.581968 46.912994 -963.04309
-43.340855 110.2257 -887.31079
107.39217 74.093445 -873.6637
107.03575 75.793579 -872.06738
-2.4508162 60.447624 -930.71851
-12.5879 59.477943 -917.99573
-13.940144 59.937222 -915.83966
-20.323626 91.527145 -956.50604
-22.816088 92.215485 -956.28192
-21.822773 93.252701 -954.05566
-20.299006 94.049736 -952.25983
-20.100044 95.633652 -950.21497
-18.165794 93.43219 -952.37512
-17.440434 92.101547 -954.11652
49.332939 116.51126 -900.48718
-4.6696463 123.43983 -895.0155
16.898315 67.001442 -960.10022
-110.71656 108.68484 -920.70349
-111.42205 106.45444 -921.39124
-25.569248 51.415413 -1046.1725
0.96652299 31.295158 -1031.7446
2.1113801 29.135183 -1031.448
4.3528256 28.970785 -1032.4741
-23.65929 51.189758 -1039.96
35.908783 73.08139 -870.8548
35.657299 75.020432 -869.96893
-89.710823 126.28519 -932.02179
0.59359634 59.565395 -927.32196
-20.422167 122.72924 -920.56848
-12.54069 15.019497 -1052.6058
5.6684341 25.589567 -1031.5087
6.241291 23.229733 -1030.7948
-91.487221 76.117729 -910.14172
-1.5212486 78.764145 -873.86896
22.685236 29.195024 -1041.0023
24.286444 30.605469 -1042.4109
-3.2775865 50.620457 -998.23529
113.43108 83.4002 -883.59589
-3.345891 110.56164 -878.81622
-2.207334 109.36452 -877.40271
-2.7948635 107.59822 -876.4906
-0.56056815 110.80187 -877.91809
0.18532193 112.40725 -879.11292
14.366189 -12.33641 -1029.3258
-6.2250628 38.103851 -1017.2973
-6.6007457 35.885654 -1018.5266
-6.3483877 37.179787 -1015.1722
-6.9266953 35.314629 -1013.9162
-7.7380552 33.069107 -1014.5107
-7.3077359 33.538754 -1017.0872
-44.451237 124.98989 -915.68915
36.522274 109.70173 -876.71027
-12.46189 29.079151 -1059.2708
-10.544921 28.186951 -1058.5166
-9.9928312 26.013735 -1057.4353
-7.6333828 25.635227 -1056.9993
15.705283 -16.194445 -1040.1034
-27.695553 65.140915 -1011.557
-25.857111 64.530342 -1012.1473
69.63678 65.492645 -901.30438
-49.204773 -6.9421616 -1041.6943
-3.6022136 84.720894 -872.62885
-5.0544543 83.298691 -873.16241
-7.4960465 83.746063 -873.68115
-4.1663394 81.194298 -873.56976
-1.5143127 84.491234 -872.49933
5.8686304 -7.9774418 -1043.9191
14.934742 99.155563 -869.84668
16.484201 101.04476 -870.37231
17.26124 98.331863 -869.7785
17.790144 95.932007 -869.36224
-7.5836387 35.546593 -1003.2126
-6.5010605 37.592384 -1003.692
-50.999035 123.79854 -930.82074
-57.283253 43.467979 -1032.0278
-43.033108 55.677128 -958.28766
-66.591141 122.40324 -939.35461
37.39653 3.0797443 -1042.5499
37.814297 0.86071146 -1045.4529
69.53109 77.6343 -912.00854
-17.068089 51.134594 -951.27734
-17.918655 52.173504 -949.31244
21.575304 121.78134 -894.86212
-5.8178387 39.475967 -1002.4685
-5.0473757 41.917625 -1003.0919
-4.9466133 42.513821 -1005.6608
-30.574333 100.33099 -881.23944
-18.090191 91.00721 -956.31879
-2.6349227 53.303295 -993.84271
-43.386059 74.208305 -892.54913
101.85989 66.532684 -879.27106
30.724279 20.911098 -1059.1658
-30.658058 4.7630138 -1049.5161
-3.8424721 44.577694 -1041.0892
-15.853463 122.74879 -918.10773
-113.8475 85.914162 -921.83337
-113.20692 83.545242 -920.59058
26.743513 83.252907 -868.46844
27.37895 85.657639 -868.05701
-25.056452 111.82424 -883.4353
-26.155407 109.56448 -882.37061
-53.20248 9.9711561 -1050.0771
-111.83765 86.085335 -943.50745
55.2258 114.37318 -900.90436
55.179741 113.83985 -902.90863
33.139935 69.450912 -927.58276
-7.9798565 70.26754 -884.68219
80.362762 69.392426 -902.69122
82.596809 70.047432 -902.75775
13.896236 109.28594 -930.24274
13.961418 111.02226 -928.87939
11.287725 109.24665 -931.25824
-54.052441 81.130791 -952.88068
-33.719913 0.10553346 -1047.0229
-47.525307 57.325367 -963.01166
23.427959 10.812858 -1053.9701
79.374054 101.48596 -903.91266
-39.098919 5.7959485 -1049.3704
38.857643 38.726517 -1064.8431
-16.931093 13.731734 -1052.7594
-37.291443 51.99577 -957.69263
-36.942738 50.730637 -959.66235
-22.647346 62.001621 -905.83044
37.735249 110.88116 -919.79492
-51.449356 66.281639 -936.46808
-49.88932 66.14138 -938.08514
-47.365402 65.255989 -937.67786
-52.766781 66.086571 -934.34247
-50.390663 65.669403 -934.50958
-49.499413 65.140137 -932.60748
-47.86657 65.038284 -934.31903
-26.601135 105.42281 -880.22955
-4.4778466 45.027245 -989.33795
-5.050005 43.424995 -991.05469
-46.987801 95.402908 -883.91705
91.670357 65.48349 -876.68073
90.192688 64.684509 -878.55847
89.326569 64.190163 -880.61035
-39.553692 88.419617 -881.58801
0.80684233 12.660181 -1026.9808
-21.337368 61.198708 -925.34003
-53.825844 45.54525 -1043.2908
-28.356045 48.245071 -959.9502
-27.436644 49.140934 -957.84174
-29.327393 50.295841 -956.4278
-91.862396 88.607964 -901.70276
-92.968575 86.564445 -902.7821
12.116263 50.366932 -1061.9443
-31.977484 94.106415 -954.51544
57.715183 112.40254 -886.96576
-22.680193 73.741425 -992.67365
35.570778 74.393723 -927.48743
23.12937 45.902378 -1069.4948
36.248703 67.721252 -874.32318
7.8205452 62.657803 -938.33411
-51.571716 125.66042 -923.36896
15.128327 117.68793 -923.22736
56.309769 60.307888 -892.7442
-25.036787 45.038086 -964.63159
89.096107 72.39843 -902.30194
-110.64776 109.7688 -925.67932
-111.16739 107.96878 -924.89233
32.204117 14.973668 -1056.2625
-58.631798 96.656219 -889.04602
-39.798458 113.55989 -887.82935
-45.088696 98.544304 -883.55353
-52.497005 100.02332 -952.19067
104.74152 67.793945 -885.91638
-30.059814 39.143406 -977.99609
9.1274529 109.13084 -932.3255
-60.506313 66.708092 -911.12561
-61.672802 67.577171 -909.36188
-60.85807 68.23468 -907.31696
-58.517109 67.837326 -907.1416
-12.141701 99.137787 -878.4798
32.288048 87.578857 -867.23309
31.370928 85.269257 -867.40479
34.866081 112.95885 -918.94568
-34.849831 64.189987 -905.37244
-37.357231 64.466019 -905.89587
-37.961517 63.828892 -908.10211
-40.20174 63.99688 -908.75946
-40.850937 63.452026 -911.12891
-41.841171 64.862343 -906.95624
-38.899563 65.237885 -904.49384
-38.570854 65.903397 -902.58612
-36.413231 65.912834 -901.55029
-35.669067 66.686035 -899.4024
-37.951241 67.465919 -898.69507
-38.043854 68.471634 -896.90002
-36.382568 69.054123 -895.30505
-34.039677 67.933876 -896.23029
28.136551 104.20917 -930.56689
-27.598106 72.573738 -996.03131
-7.2806101 122.25665 -892.87744
-88.73983 118.17258 -949.16687
-15.663033 -9.0957193 -1042.4324
-13.30874 -9.0917444 -1042.3958
35.180279 -5.7373118 -1043.5558
-58.765614 116.74804 -900.14856
-58.156715 118.73381 -901.04449
-57.54314 120.77586 -901.99597
-55.700417 119.23251 -900.74445
59.207397 102.15734 -916.29382
32.674652 24.218424 -1043.4633
-3.4598975 47.922787 -991.0058
103.11171 68.823875 -890.30505
105.13351 69.886009 -890.45148
101.62064 67.572342 -889.13623
99.425186 66.886139 -889.42114
-56.945923 111.3512 -896.77081
47.788597 88.348587 -866.12567
21.134724 57.145561 -914.01971
-6.0922508 38.315659 -1005.7867
-5.4243693 40.41608 -1006.9358
-33.571983 35.419506 -1064.3461
-32.246284 65.772537 -899.99677
-72.500954 66.809998 -927.29102
-45.657505 76.014565 -981.18445
76.966766 104.44981 -900.66559
-41.288532 63.084736 -913.60107
69.918518 70.0131 -907.00574
-109.88556 77.234459 -920.12067
17.148916 75.403549 -946.74005
18.432789 73.056946 -946.54724
20.06838 73.085426 -944.91388
-84.806084 74.215141 -945.76837
16.573702 56.592991 -910.29974
-31.838278 31.140356 -1062.4539
7.6201096 99.187035 -940.78918
9.8173208 98.3256 -940.96948
10.099753 -16.129894 -1032.6411
8.434227 -14.969353 -1031.6141
9.3300915 -12.969111 -1030.0161
-10.867095 29.48094 -1009.1891
-9.8690071 28.724293 -1014.9688
-61.377266 25.380375 -1038.4485
-65.795158 76.716965 -898.12921
-4.5385742 46.6824 -1007.4083
75.280212 62.570782 -887.11493
-4.2444367 48.543785 -1005.3452
-48.424339 66.821808 -945.79523
6.4905996 77.214455 -872.45197
111.44609 78.50956 -889.0589
-64.599411 80.10482 -895.71643
10.11705 62.660023 -883.34973
-80.180481 73.216629 -945.35706
13.031363 4.7066789 -1050.5883
68.868828 63.443047 -897.39746
-92.044868 79.166588 -907.20294
-89.710373 78.738762 -906.64539
22.836576 -6.9590421 -1029.2135
20.854481 -8.7530584 -1028.8058
18.575041 -8.3856401 -1028.2234
18.0641 -5.9778814 -1027.8718
26.156687 -2.6302087 -1030.6974
27.020473 -0.34071803 -1031.4091
-73.921394 76.314011 -901.73749
-11.394252 58.607178 -919.98969
80.249413 95.431358 -907.73059
-92.035378 124.98015 -922.17023
-92.75515 125.50342 -924.43256
-94.465134 125.50192 -925.38446
-96.260185 124.71725 -923.46399
-98.252228 124.75879 -924.7865
-4.0982814 61.802113 -893.18927
102.47609 99.448013 -887.91492
21.237267 4.023747 -1030.3058
23.425629 4.1032753 -1031.1525
24.575161 2.1107409 -1030.9509
23.556984 6.265605 -1031.9792
7.0773172 92.617348 -871.39691
79.905205 67.391411 -873.40503
-98.049484 71.973679 -920.87787
2.0578601 43.370895 -1043.0214
3.7750874 42.234615 -1042.2773
-95.775795 87.435364 -903.48163
-74.125755 88.214241 -893.73425
-55.152245 84.607117 -953.19763
-10.367508 81.970444 -969.95319
-5.8311625 35.625694 -1023.8257
16.90797 118.34215 -921.80518
-34.406357 5.6360416 -1049.7234
45.054062 62.995747 -879.56805
52.388226 114.09261 -886.52844
54.166 113.33094 -885.54358
-8.952383 22.487923 -1022.3051
-7.987143 24.59399 -1022.4077
-43.193855 94.558548 -882.14929
2.5668547 104.78398 -873.81403
-8.6401596 119.25699 -924.0708
-101.10152 122.35447 -944.63464
-83.972466 121.91393 -943.90417
-5.372005 56.624115 -1003.7593
-5.1013927 57.978031 -1001.4725
-80.362083 68.522423 -916.60345
-80.544182 69.379555 -913.87079
9.4630928 35.317501 -1038.2263
-111.92076 83.882538 -917.95898
-28.151388 44.753674 -966.48114
2.105042 5.1997204 -1049.4762
-3.7974014 53.838634 -1000.9225
-10.841223 68.631813 -995.29089
-28.963169 22.907515 -1010.9055
-28.63879 21.806581 -1012.9966
31.864145 76.137032 -869.91357
33.04982 74.073891 -870.71429
-51.734848 68.617188 -944.28876
-53.32217 68.755112 -942.64795
-52.932606 67.781349 -940.59937
-54.558933 67.663773 -938.68225
-58.182888 -1.3428921 -1043.1189
-59.667568 1.1848449 -1041.8694
-25.075436 37.63475 -1065.7061
-35.008446 55.531929 -1031.9655
-51.845779 66.193863 -908.16595
76.111824 80.560989 -910.77631
-88.676292 72.506989 -941.98895
-2.5619109 13.973689 -1052.2601
-34.645855 80.986084 -979.55823
-107.99456 116.97619 -933.13025
-38.445515 50.657013 -1071.6975
-54.972034 58.868092 -1006.7069
38.955273 58.63472 -903.49268
-51.572514 124.38605 -903.8819
24.017683 58.00676 -892.90997
24.617353 57.597202 -894.96753
-110.62878 83.142448 -944.95856
27.561756 15.305085 -1056.3069
31.313801 66.252312 -928.58997
32.490223 -9.8045883 -1042.4557
95.520676 68.659798 -871.83698
113.4524 85.825539 -881.05798
-22.586695 119.92437 -927.8255
-107.97958 73.80928 -934.29327
-17.300081 -4.6445904 -1044.2029
15.723314 2.4893732 -1049.6522
-37.418015 2.2740803 -1047.8386
36.320824 59.389568 -886.7262
27.466908 61.170605 -922.02161
111.77358 84.905838 -891.39276
23.60931 18.52916 -1036.4955
-19.228117 41.918648 -969.76227
76.762123 68.797775 -903.42426
64.425575 102.16637 -873.39587
-84.620651 122.88323 -912.44348
-29.118809 -4.6913586 -1044.7631
-27.554853 -3.3049378 -1045.5355
-25.296547 -2.9123342 -1045.7135
-27.745081 -1.249194 -1046.5898
-27.468517 -6.3777761 -1044.0048
85.760078 70.025085 -901.33917
-45.544075 54.999985 -962.70264
-8.3409948 32.929951 -1009.4091
50.078316 115.91531 -892.95959
58.500744 61.131203 -891.10022
-18.82807 12.268285 -1052.3627
14.664943 31.58963 -1063.0244
22.698069 85.078049 -868.95471
20.418295 85.662521 -869.00867
-32.281822 43.568214 -970.83398
15.458982 35.364334 -1064.8
-25.363501 51.562027 -1072.4531
-24.616882 49.476685 -1071.8412
41.954639 58.536251 -889.34137
-19.174728 89.911537 -876.86639
6.8230419 89.762863 -872.17889
8.952383 88.718063 -870.86591
4.2347236 89.792336 -872.76147
3.3019891 87.316101 -872.90558
1.1761056 87.356567 -872.65216
1.781262 85.229309 -872.78156
7.4661422 86.940308 -871.84186
5.5822253 85.124535 -872.32062
112.55047 87.236412 -882.90967
111.83786 89.305916 -882.19922
-8.4010019 78.960464 -974.37585
30.132977 89.44886 -867.68536
28.333166 88.263947 -867.88861
26.603949 89.533577 -868.29236
26.656462 91.719597 -868.5976
28.635792 92.808723 -868.45074
24.903721 93.223999 -869.14319
90.588707 103.52817 -883.20105
-53.341183 63.172832 -976.13708
-68.99028 81.988907 -952.45984
-56.238605 65.557808 -912.50299
-35.196404 106.05228 -883.89929
-37.360676 106.29623 -883.81281
-21.780441 61.13176 -910.3595
-25.395624 28.878588 -997.60413
-86.967674 68.846397 -932.14203
-92.584862 74.687904 -944.9306
-6.0614748 58.679192 -937.72784
-10.152791 64.703537 -892.80756
-106.44157 82.335663 -913.77362
25.881342 59.345982 -917.71594
27.340088 59.460594 -915.87567
29.470026 60.617954 -915.86108
30.756964 61.97583 -917.18719
5.6443152 118.84518 -886.05438
61.617054 61.81562 -891.81561
-107.20311 118.94176 -932.08545
2.7908859 50.431286 -1067.5367
-34.262165 10.437738 -1026.7687
63.549446 76.9636 -915.68707
-55.004017 44.588196 -1038.9666
-113.4499 93.630684 -932.61237
27.830698 119.59933 -891.94061
29.874798 102.49632 -871.35419
-26.584829 62.786331 -1015.8932
11.956991 37.745396 -1041.4874
-69.554985 24.931108 -1051.6873
-46.52354 65.425774 -949.10846
-21.213167 40.983627 -971.83282
-53.151806 17.724207 -1028.78
-16.232193 106.14354 -940.74658
-38.965061 95.068138 -953.47791
-38.711575 93.286606 -954.8042
-36.495636 92.748611 -955.49805
-37.497875 96.351166 -952.48364
-37.798649 98.045555 -951.2962
-39.760658 98.804802 -951.05743
-41.775227 98.339577 -951.52496
-39.445232 100.60002 -950.00439
-37.708382 101.77832 -949.02264
-41.236809 101.90252 -949.61365
-41.210434 103.95752 -948.45508
-41.55415 96.507431 -952.56415
-43.359268 95.477913 -953.21985
-35.73481 100.5848 -949.35571
-93.77375 126.12902 -932.73016
-92.684364 126.06187 -934.60309
-94.263466 125.75525 -936.57971
3.681061 95.098175 -871.66895
-14.557292 39.296234 -977.29144
-17.425634 83.027992 -971.92529
-17.840826 84.091965 -969.95294
-25.408506 82.386002 -976.12061
-33.670322 28.267635 -1060.9299
69.724258 107.33678 -899.42102
59.102417 69.165565 -873.75238
43.055645 92.147118 -866.94366
105.6865 74.647415 -895.07312
-41.871956 13.841663 -1052.9393
107.86627 73.124916 -892.01074
-57.596889 38.193111 -1063.7808
89.480392 66.386993 -874.82281
-14.35482 80.05098 -877.30627
1.615823 81.454865 -872.59955
-50.996628 27.668385 -1058.8071
-50.566818 25.474146 -1057.7372
-35.559643 51.765526 -1072.6154
96.576828 66.593475 -875.42316
11.258862 101.48064 -936.11383
-54.780712 60.275543 -1000.2262
21.324993 -18.370827 -1037.5027
23.499073 -17.668575 -1035.6439
21.066584 -18.407688 -1034.8568
-54.062851 125.7752 -925.1098
-95.504425 124.6853 -941.01965
-95.095711 123.94241 -943.08069
-2.8344488 8.3565283 -1049.9082
43.586613 79.653572 -867.2016
43.774895 82.231682 -866.54742
-62.607033 15.800666 -1051.948
12.667536 32.383415 -1037.9312
14.732161 32.060276 -1038.7743
-54.173576 50.770401 -1027.6694
-19.558794 55.504902 -1026.5239
-21.952576 56.532913 -1025.9209
-43.839581 52.527943 -963.6496
-55.238415 9.6592646 -1032.4075
-26.766352 55.078514 -1071.8287
-96.435036 73.484459 -916.14288
-32.444763 40.218616 -976.99329
-31.877474 41.296665 -974.77631
-49.330914 75.801056 -893.58527
-29.328827 119.62904 -930.77686
13.433275 93.18042 -869.01318
-3.4488301 66.967682 -985.73059
-14.623335 73.756577 -883.63
3.7872009 85.167931 -949.00696
52.913025 115.58099 -897.0791
23.87899 59.100338 -889.64502
26.250198 59.332703 -888.90082
28.191444 58.722416 -890.04309
27.377178 57.985332 -892.97821
29.679148 57.732273 -894.00354
-23.149101 32.953438 -1063.2559
-8.1871872 52.135876 -1056.7589
-16.280491 78.551704 -980.59729
-7.6965036 115.98921 -929.13306
-74.02816 123.22634 -939.95801
-102.12379 71.391891 -932.17377
-106.52069 99.19278 -954.83099
13.079261 88.587929 -868.93341
24.171383 -15.398063 -1033.0609
6.0184383 122.15769 -892.44574
59.968559 92.955627 -868.2002
-5.2235427 117.29065 -886.99304
17.876019 71.18782 -948.21759
17.924347 69.032806 -948.57825
101.79734 74.593719 -897.36218
-87.431946 76.506737 -948.03308
-87.596024 75.030876 -946.22455
-55.872383 43.388241 -1045.1212
-57.462112 42.129536 -1046.2181
-58.558849 40.467487 -1045.1694
9.7847939 50.623371 -1061.1136
-26.768204 47.590977 -1070.9014
66.166473 65.394737 -877.12775
0.31763852 49.145161 -1053.207
60.101048 72.116646 -870.94769
-105.38818 72.12587 -929.91138
-0.78643388 76.276466 -971.68079
-0.46343914 75.007904 -973.70343
34.824932 115.76916 -914.64862
0.67565531 60.802406 -936.71429
-43.252979 23.491346 -1016.612
-112.68477 100.30165 -931.09924
-89.921448 73.675102 -943.76843
-32.737919 26.168264 -1059.9946
-2.0119534 64.030098 -985.33087
-15.946418 117.9207 -929.09839
-27.880663 -11.385313 -1039.7142
-25.114502 -11.563287 -1040.498
14.293994 10.367614 -1030.0233
53.124107 80.228523 -867.85474
15.272014 112.3743 -927.66498
15.093458 114.30703 -926.42285
12.914761 115.23644 -926.27997
13.185532 116.86566 -924.68164
-32.445339 92.458176 -956.33148
8.2129669 110.78349 -876.73126
7.8595152 112.61417 -878.41553
5.7007647 113.10334 -879.13098
4.0702262 111.61374 -877.9444
-39.87484 72.832687 -996.36194
-12.812054 47.913021 -1039.0544
-58.614914 42.815098 -1064.135
-92.455452 89.675079 -956.22162
-0.95404077 58.755272 -983.26819
-1.3104197 60.120766 -985.14807
-25.102428 66.326324 -1008.3539
-87.865852 126.13117 -933.14075
-85.823959 126.08205 -932.26617
-83.88765 125.7353 -933.29224
-81.774727 125.66173 -932.48267
-84.161926 125.31984 -935.40814
-85.685966 126.23512 -930.07446
-83.772163 126.16534 -928.81366
-86.317337 125.35495 -936.35889
-86.746681 124.76593 -938.53699
-85.006996 124.0907 -939.60687
-82.779747 124.06337 -938.95709
-87.745338 126.35396 -928.96924
-87.499359 126.27637 -926.73914
-89.23584 126.0641 -925.57391
-81.688011 123.24612 -940.76697
-52.611458 46.95137 -1044.8572
-51.914276 47.791687 -1046.7035
37.354488 113.41919 -916.82208
-3.0151973 50.484837 -1068.4415
-4.3257051 52.04213 -1067.7142
-6.1391344 52.497864 -1068.3872
-28.995588 124.30719 -909.46954
-27.557623 124.02802 -911.39197
-89.522949 95.756477 -898.65198
13.739623 7.3199949 -1051.8893
11.821615 7.4660616 -1029.3837
-0.66971731 52.378361 -1061.3888
-4.1029496 115.04908 -883.75433
-4.5644631 113.21501 -882.10107
-53.186642 102.8148 -891.25397
-100.27624 75.559586 -914.51514
-43.56884 -6.2011433 -1035.422
21.067472 46.230156 -1069.6941
29.290014 63.14872 -927.74274
-17.882788 33.118237 -989.1568
-13.600422 58.453339 -936.01105
-113.47411 87.251511 -919.36414
-63.069336 20.835463 -1054.106
72.6026 106.13924 -878.72809
-36.888298 44.191525 -1068.1993
2.7514572 -2.4862859 -1046.2888
64.819092 70.931847 -870.72589
5.9221702 1.0817044 -1029.8113
-28.530157 114.9739 -889.09692
26.816793 27.979471 -1062.5135
-110.81319 76.140648 -923.54425
-48.972023 8.5115595 -1030.0516
47.601223 117.0756 -899.56799
89.221268 96.616974 -869.43042
-55.914715 67.265984 -936.43475
-41.395344 55.200626 -1032.6741
-87.758171 100.92763 -897.23071
79.998375 102.74401 -901.67517
45.131088 116.89507 -893.00464
-43.060806 33.586079 -996.74127
-52.469727 13.070078 -1030.1234
-51.013073 10.914089 -1030.0166
-39.782688 60.052616 -947.00067
-41.352005 61.6726 -946.01703
90.06311 92.547508 -866.71436
82.142487 105.72868 -883.17847
-56.990593 40.957733 -1041.0771
-53.515831 120.47569 -900.89111
-105.18182 83.665955 -910.85229
-22.460466 19.281994 -1017.4371
-95.262283 90.245674 -902.53815
64.43734 109.85429 -898.9801
86.482002 63.743839 -883.55267
-24.198559 57.347878 -940.81683
-47.101723 65.53083 -941.6485
-49.309959 66.678391 -942.20483
-50.767952 66.903587 -940.32043
-44.313286 25.770449 -1013.0527
91.852989 102.93709 -880.76508
-2.252578 51.052235 -919.34845
-5.0226002 52.390377 -918.58374
94.3424 64.72467 -882.57373
-76.031357 98.806976 -956.8382
-50.295177 119.26778 -899.47162
