# .PCD v0.7 - Point Cloud Data file format
VERSION 0.7
FIELDS x y z
SIZE 4 4 4
TYPE F F F
COUNT 1 1 1
WIDTH 1539
HEIGHT 1
VIEWPOINT 0 0 0 1 0 0 0
POINTS 1539
DATA ascii
-56.556332 112.25935 -967.47321
-56.293205 132.82004 -959.64935
-57.444557 135.89616 -958.08667
-59.982845 136.09296 -958.28143
-61.17477 138.25548 -957.03546
-63.716316 138.31848 -957.23938
-51.700596 119.03581 -965.79761
-48.778988 117.64725 -965.26025
-49.673641 119.61674 -965.22632
-58.832855 127.94369 -964.69525
-58.749149 111.0942 -967.90747
-58.42934 113.80108 -968.039
-57.921825 116.15341 -967.79956
-59.80162 131.85069 -961.1319
-61.06995 133.79523 -959.67621
-63.531868 133.90985 -959.85114
-64.772171 132.07573 -961.2782
-63.766582 130.59988 -962.78021
-67.336533 132.4411 -961.24603
-68.599693 134.1846 -960.25824
-70.564468 136.25592 -959.20557
-68.305824 131.15804 -962.46869
-67.763115 129.43703 -964.2334
-70.445747 131.80721 -962.1192
-67.496948 135.70233 -959.29608
-64.972023 135.95535 -958.87134
-68.648308 137.16959 -958.46606
-68.055847 138.66177 -957.09265
-65.853485 138.94897 -956.70953
-65.069344 140.14256 -955.04907
-69.566315 139.72844 -955.52136
-71.486122 139.37311 -955.83966
-72.196457 140.40096 -953.76648
-72.16658 141.37108 -951.62994
-72.697441 138.23245 -957.32074
-75.242836 138.18672 -957.29669
-76.003876 136.49365 -959.37073
-77.908051 135.40466 -960.65131
-80.305199 135.70053 -960.69855
-50.676926 126.06664 -964.06018
-50.095341 127.9809 -962.99469
-49.301678 129.42294 -961.53528
-48.783653 130.79568 -959.92749
-50.746918 131.88777 -959.07031
-47.724056 132.05618 -958.15204
-51.854496 129.23505 -962.31702
-52.974072 130.52539 -961.20197
-54.316418 131.71449 -960.11481
-48.447083 126.09225 -963.56519
-46.013607 126.3765 -962.79303
-47.127441 124.22007 -963.79102
-47.089741 129.11401 -961.18469
-45.271061 129.21509 -960.60382
-43.403866 129.24112 -959.92676
-41.850002 127.4544 -961.00574
-41.447258 129.21727 -959.45337
-40.905472 130.61522 -957.73114
-45.013962 130.78436 -958.77301
-44.172607 132.03433 -957.26727
-43.648281 125.58228 -962.48224
-42.373962 123.29713 -962.87994
-44.207291 120.7494 -963.71759
-41.360668 118.90314 -963.5766
-51.535389 133.61983 -957.90143
-50.444023 135.63678 -956.69348
-50.788242 138.01413 -955.64392
-53.282902 134.88184 -957.71387
-55.18396 136.69914 -957.32166
-54.343884 138.2921 -956.04364
-55.539379 134.37581 -958.45227
-52.951458 139.23488 -954.92236
-48.784012 122.41245 -964.50531
-46.393532 121.93353 -964.04749
-81.7192 136.90579 -959.47797
-80.973991 138.17017 -957.5484
-78.837524 138.40941 -956.93408
-56.380985 138.53246 -956.17419
-57.883236 139.66183 -955.13885
-60.406788 139.77078 -955.13306
-50.000671 115.41406 -965.83191
-63.717205 123.26707 -967.29755
-64.93541 125.36245 -966.87708
-63.628899 127.08642 -965.89386
-77.196465 133.25821 -962.25787
-75.003502 132.43631 -962.49164
-72.931358 133.36139 -961.34027
-49.30481 138.93353 -954.50482
-49.563808 140.56339 -952.65381
-50.707291 141.58333 -951.08209
-58.885201 130.30486 -962.67889
-61.535187 130.54956 -962.60065
-84.05349 136.78722 -959.96582
-18.079884 16.745552 -1049.2249
-18.810354 18.636814 -1050.2903
2.2462516 86.943985 -1018.9648
2.3478758 88.03257 -1016.9755
1.7183712 85.860237 -1021.0596
1.0311217 84.968811 -1022.8848
1.8535128 83.975349 -1024.438
1.5888079 82.835907 -1026.5538
3.9993317 83.409546 -1024.6686
-1.2424572 84.826004 -1023.6627
0.07098902 86.764381 -1019.8491
-1.9681282 87.52095 -1018.8952
-3.9968905 88.244926 -1017.9386
-1.7611482 88.598022 -1017.0062
-2.1469309 86.467125 -1020.8073
-4.0526857 86.030899 -1021.8749
-1.7799417 89.697548 -1015.0737
-1.5419004 90.945747 -1012.7686
-3.5086522 90.482391 -1013.9247
-6.0747685 90.721901 -1013.6894
-6.9693036 91.736855 -1011.8481
-8.9692621 90.973274 -1013.211
-2.6462965 92.382812 -1010.3095
0.2915163 88.809883 -1016.2143
2.1353652 89.208565 -1014.9865
3.822751 90.187469 -1012.5737
1.5281143 90.419342 -1012.976
-5.3196139 92.603149 -1010.1965
-7.5394883 92.928741 -1009.6671
4.3370457 91.507202 -1009.9623
45.643448 105.21477 -928.30304
-30.897264 82.127991 -970.46094
-32.022839 84.196342 -970.65045
-32.911179 85.34964 -972.1153
46.622482 65.964432 -1068.7993
48.491016 63.636642 -1067.4413
45.578346 68.269012 -1070.1833
47.062725 61.46426 -1066.3438
44.379944 61.387066 -1066.351
49.860172 61.442715 -1066.1812
52.691628 60.819 -1065.6278
53.381653 58.328823 -1064.2869
54.729279 62.735004 -1066.4271
54.137314 64.849632 -1067.7065
51.977089 66.145279 -1068.7201
51.760029 56.411819 -1063.4249
49.094917 56.931576 -1063.8741
46.54491 56.958557 -1063.9907
48.214977 59.198154 -1065.1112
56.395664 65.961731 -1068.2458
57.057922 67.946632 -1069.6923
59.151009 66.075882 -1068.2133
60.793182 64.169594 -1066.8927
61.995865 66.941406 -1068.8124
55.120964 69.372787 -1070.6926
53.806499 71.449677 -1071.6211
51.833031 73.288338 -1072.2911
54.812763 74.394699 -1071.6071
57.984074 75.07991 -1070.0726
58.052551 75.942184 -1067.2448
54.191692 76.61335 -1064.9102
60.784767 74.780182 -1063.6962
53.518238 76.428413 -1061.1826
64.14341 72.761971 -1065.2594
52.715523 75.993736 -1070.0596
50.749763 77.074257 -1067.0282
52.860996 68.578835 -1070.2646
50.632225 68.255066 -1070.2223
47.895233 68.455406 -1070.4377
49.473602 70.028297 -1071.4926
49.227238 72.238602 -1072.3958
46.137638 73.144478 -1072.774
43.605556 72.777679 -1072.6621
42.238155 75.644958 -1072.4934
41.218369 72.64035 -1072.5779
38.800739 72.192955 -1072.1077
43.085125 77.387306 -1070.3468
44.256088 77.847878 -1067.3243
42.458195 77.633621 -1064.7361
40.501499 76.898056 -1071.2705
45.570686 77.48571 -1064.0476
47.515179 77.127617 -1062.3909
47.775761 76.38501 -1059.3091
44.051907 75.222908 -1056.9531
45.035095 73.132942 -1053.5565
43.192097 70.572685 -1050.2922
50.250423 75.869141 -1058.0452
51.651203 73.619949 -1054.4662
46.598576 68.361931 -1048.2946
51.969738 68.153 -1049.2019
49.360638 77.199875 -1064.6256
52.028942 76.857079 -1064.0867
58.12038 70.04808 -1070.9922
60.974133 71.011116 -1070.6576
53.091743 76.799164 -1067.3501
47.311474 76.448685 -1071.4271
46.101524 77.561501 -1069.4819
48.735512 77.249168 -1068.7297
36.825916 71.667625 -1071.5789
36.380615 69.52108 -1070.188
54.465683 73.405022 -1054.7405
59.070644 72.350548 -1055.457
63.454021 69.746216 -1055.9315
57.004772 74.188263 -1056.8684
52.572266 71.893227 -1052.7007
59.686886 69.171844 -1052.4714
59.99255 65.5914 -1049.6479
63.919289 62.679348 -1049.4989
59.219357 62.404659 -1047.2217
66.676414 63.52557 -1052.8877
56.414238 67.767372 -1050.0236
53.466724 69.859772 -1050.9941
50.767654 70.282356 -1050.8468
49.607815 68.508469 -1048.9821
50.628063 66.531517 -1047.5497
52.458359 62.743675 -1045.4227
53.477726 65.716087 -1047.6747
48.528835 61.676449 -1043.6049
49.996704 72.254166 -1052.7184
56.009605 75.573975 -1059.4612
58.815987 74.570457 -1059.3959
42.39505 77.094208 -1061.8884
40.431446 76.497009 -1060.0745
42.957432 76.262589 -1059.2391
37.96991 76.732124 -1061.0529
38.601158 75.73999 -1058.464
39.478046 74.80294 -1056.4838
41.644867 74.341606 -1055.527
39.123772 73.78566 -1054.7175
38.418949 72.549301 -1052.72
40.180305 70.91658 -1050.4924
37.812508 71.339714 -1050.896
35.109234 71.156227 -1050.3201
33.310005 72.302109 -1052.1162
34.011501 73.358154 -1054.1284
31.474112 73.383797 -1054.072
30.072279 74.536255 -1056.4363
34.762497 69.925835 -1048.3417
36.593048 73.414352 -1054.1915
37.856239 77.320671 -1063.3853
39.624462 77.798843 -1065.955
44.048096 57.158764 -1064.1268
40.458511 70.572838 -1071.5251
40.919662 68.453537 -1070.0941
43.296555 68.321915 -1070.1332
38.877148 77.818298 -1068.816
64.568321 66.527695 -1067.8912
67.904686 68.124039 -1064.2771
66.248459 70.595253 -1064.0615
64.799149 71.491806 -1061.5215
65.191414 69.957069 -1058.994
58.30117 72.604431 -1071.3776
60.352524 73.333221 -1070.4316
57.08408 61.972969 -1065.7896
58.342098 60.118084 -1064.6825
31.138453 72.097191 -1051.5165
66.421196 68.444893 -1066.9504
44.967442 70.604065 -1071.7412
63.007832 64.599709 -1067.1619
63.352715 62.430096 -1065.6372
66.322624 61.783798 -1065.0104
68.685349 60.387489 -1063.2404
70.238724 61.372849 -1059.7496
67.895348 64.367348 -1065.1804
68.402679 66.837959 -1062.1228
68.35041 66.08934 -1059.5138
68.758629 63.906006 -1057.3954
66.843452 68.148041 -1059.1517
65.335289 68.408005 -1056.7377
65.496124 66.619621 -1054.7322
67.437263 64.476967 -1055.3099
63.299923 60.465668 -1064.5353
61.012474 59.536442 -1064.1466
59.492802 58.275192 -1063.5867
59.190697 56.224579 -1062.4727
61.082897 55.428566 -1061.7969
63.242264 54.966499 -1061.3435
63.07386 58.474918 -1063.3939
68.214478 62.214165 -1054.1696
69.18911 59.376907 -1053.2568
67.648987 61.013081 -1051.8579
65.99617 60.377876 -1049.4078
66.346687 57.796761 -1048.01
68.918129 54.466869 -1048.8365
65.829376 62.585312 -1050.9666
64.17688 64.559174 -1051.1868
62.100803 64.401299 -1049.7646
61.715641 62.554932 -1048.3009
63.390503 60.851543 -1047.9257
61.135052 60.528809 -1046.8215
59.864704 58.36713 -1045.1444
62.982552 55.623238 -1044.7699
57.882908 56.711632 -1043.6146
63.214405 52.998554 -1043.4028
55.180603 57.986736 -1043.4838
52.871395 56.469273 -1041.7986
53.15266 53.851433 -1040.255
51.007957 52.284695 -1038.5602
50.212822 57.564026 -1041.5522
53.775585 50.70647 -1038.6588
54.558117 60.746109 -1044.8595
64.623734 59.173458 -1047.5856
64.413322 57.055599 -1046.2313
56.955383 61.929829 -1046.2314
59.027901 60.366074 -1045.9867
54.50211 63.130585 -1046.2358
58.157253 54.231239 -1042.292
56.316864 53.047138 -1040.9211
60.64072 54.376595 -1043.2302
48.36134 53.670132 -1038.4331
61.667343 66.194054 -1050.9192
59.75119 67.383713 -1050.943
61.515682 67.959244 -1052.368
61.559029 69.797249 -1054.2054
63.507225 68.211441 -1054.2007
61.43824 71.463966 -1056.1072
59.926945 73.230995 -1057.4275
58.117489 66.663666 -1049.7216
58.06889 64.761124 -1048.3405
63.265617 71.102715 -1057.6764
60.002403 63.921787 -1048.4752
57.998138 68.599503 -1051.2361
57.612865 70.451653 -1052.7004
56.939903 72.415947 -1054.416
55.831013 69.461975 -1051.2251
59.544575 70.749672 -1053.891
63.767124 71.691269 -1059.6948
62.81461 50.631641 -1041.8015
59.815815 49.769402 -1040.196
64.483833 48.078041 -1040.9943
65.22377 45.493214 -1040.0482
67.066742 47.295712 -1042.3923
68.387482 48.676147 -1044.5573
63.592655 43.768272 -1038.2582
65.287193 41.31076 -1038.1383
67.471451 51.187523 -1044.9856
50.258881 49.808983 -1036.9951
49.874313 47.32016 -1035.647
51.679398 45.494183 -1035.3271
54.666927 45.799641 -1036.4675
54.768799 48.207886 -1037.7028
8.8779392 65.735252 -985.37323
6.7370391 64.319862 -985.84979
6.3124585 62.986462 -987.80701
7.9843712 62.809986 -989.46924
9.857338 63.060471 -991.08496
10.110578 64.348892 -989.21149
11.867626 65.92028 -989.16406
13.138703 66.155182 -991.14032
13.159588 64.864372 -993.45081
13.999759 68.068382 -989.97351
15.295811 69.50071 -991.49652
15.741967 69.105858 -993.8244
14.887345 66.717995 -994.78027
16.112114 71.574341 -991.50378
14.273304 69.587715 -988.20264
9.5172119 61.825325 -992.83014
7.5613155 60.540485 -993.00281
9.3032331 60.637894 -994.67236
11.007118 61.019165 -996.37402
9.1889935 59.520493 -996.61072
12.592612 62.953934 -995.69342
11.462498 63.376518 -992.85541
14.029547 63.620918 -997.76227
11.002171 59.876286 -998.36694
12.625134 60.498825 -999.96423
13.920892 61.186928 -1001.5353
10.728905 58.395382 -1000.5085
-6.1020765 89.337402 -934.86053
-15.006918 72.016464 -1053.5026
-15.424784 72.155571 -1055.8805
-17.520962 71.764793 -1057.0358
-15.862638 72.50975 -1058.3907
-19.451782 71.183372 -1058.021
-19.374189 70.871437 -1055.6005
-21.195612 69.82502 -1054.4443
-19.361364 70.76902 -1053.2985
-17.509186 71.430199 -1052.4113
-15.47431 71.910126 -1051.2797
-22.700336 68.842896 -1056.0854
-24.460394 67.002686 -1055.9221
-22.434793 69.353325 -1058.4136
-23.544001 68.766342 -1060.5106
-25.32168 66.682083 -1060.8458
-25.576752 65.896332 -1057.933
4.9246044 73.13353 -1053.4512
62.847847 107.60999 -916.07178
116.1992 131.95789 -875.26709
115.77651 134.40651 -874.47357
113.9556 135.13542 -873.13647
115.89694 136.65559 -874.90625
114.92769 139.06898 -875.11871
116.91199 138.19873 -875.86365
-97.379723 89.133553 -947.04962
60.376877 45.923855 -1056.462
18.977974 79.775116 -968.72571
93.495544 120.25479 -870.98279
94.938095 119.45755 -872.00269
94.896622 118.09002 -873.67871
73.637718 147.1539 -912.07477
36.737507 68.644638 -1046.9718
34.875568 68.482285 -1046.2887
33.129753 67.766922 -1044.8545
30.763632 68.460068 -1045.2078
33.466114 66.430809 -1043.2775
45.211311 76.224632 -1058.9963
20.382282 92.553291 -950.09326
22.721426 93.103035 -950.06171
-16.39325 82.70298 -952.41962
-81.244301 128.47379 -913.99524
-82.713043 129.31738 -915.58173
-65.200943 129.5052 -963.99146
-91.95224 91.686768 -928.23242
-92.826981 94.671463 -926.62
-90.617706 93.145851 -926.06897
-88.110909 92.48716 -925.22467
-88.645439 94.428131 -923.47675
-89.433083 96.654068 -921.96497
-89.269577 98.787857 -920.31073
-86.773361 99.581711 -918.74573
-90.221695 101.80576 -919.16412
-91.834259 97.701683 -922.68756
-94.449066 99.80159 -922.78192
-95.378304 102.77922 -921.52844
-89.608597 104.36323 -917.92169
-87.556534 105.12594 -916.74286
-92.914848 96.406075 -924.9679
-86.530296 95.116486 -921.97571
-84.515442 96.050468 -920.52747
-83.748741 94.133293 -922.09521
-82.928726 92.263123 -924.01221
-81.237251 93.346741 -922.3244
-78.96302 94.492325 -920.40112
-82.659103 97.199638 -919.0434
-85.128891 91.500145 -925.38464
-85.085411 98.018707 -919.15851
-92.638786 102.31825 -920.17975
-25.681852 151.85335 -918.66125
107.42568 147.82565 -874.19299
107.64661 146.19247 -872.53174
106.47883 145.14037 -871.15521
106.78741 143.34122 -870.00073
109.00322 142.53394 -870.64954
110.62685 143.13853 -872.38782
109.39011 140.38396 -869.93353
104.26451 146.11072 -871.42426
109.29462 146.56097 -873.90649
110.57465 138.3744 -870.32715
105.36527 148.40762 -874.18311
104.58261 149.51848 -875.79279
104.96836 150.50731 -878.22821
103.07726 151.05261 -879.00958
100.93349 150.79372 -877.81555
100.91714 149.56697 -875.45831
99.039398 151.4236 -879.13739
96.766617 151.16824 -878.22058
99.206886 152.01558 -881.2713
96.519608 150.13203 -876.40546
94.447807 149.60973 -875.77283
98.296867 149.19797 -874.98297
92.166367 149.84875 -876.25897
94.953903 151.72032 -879.33905
94.442116 152.42886 -881.75116
92.827423 151.87703 -879.61334
96.964119 152.44096 -882.81555
90.949585 151.28546 -878.39307
92.238007 152.558 -881.61249
90.106277 152.86124 -882.6684
-103.14283 118.03201 -939.45288
-0.11090058 93.781189 -905.74969
-29.171322 67.691048 -989.03375
-77.994377 130.33485 -965.11737
-76.04203 129.69102 -965.41888
-74.301376 130.35326 -964.44751
18.820229 92.5597 -932.58289
21.407675 92.274803 -931.34546
21.266668 88.000618 -921.9726
23.655018 87.248528 -924.69849
-69.879906 141.93665 -950.9248
3.1600847 149.2932 -932.242
20.947254 73.713654 -1055.3525
16.282789 72.4244 -1027.4658
17.349625 70.657707 -1025.7136
17.950764 69.368507 -1023.4412
16.262239 73.431931 -1025.3451
16.331942 74.61264 -1022.9889
16.410107 75.935394 -1020.3809
16.616707 76.925827 -1017.5002
15.107288 75.627136 -1025.0619
13.522444 77.834541 -1024.7999
17.239693 73.397827 -1021.1711
13.689526 76.4608 -1027.0482
17.959091 71.568581 -1019.3132
17.932621 72.410133 -1017.3212
17.516434 74.629425 -1016.5665
17.126476 76.660156 -1014.9351
17.484257 76.346855 -1012.4371
16.729782 78.677414 -1012.9819
15.540921 81.362099 -1012.725
14.411164 83.733734 -1011.4547
17.884054 70.866356 -1021.5793
15.281066 78.028893 -1020.2427
15.377223 79.095734 -1018.042
13.852729 78.726013 -1022.5034
18.02891 72.389671 -1015.1388
18.154751 71.083855 -1013.603
18.272329 68.978607 -1014.8064
18.349499 68.226646 -1017.4245
18.16617 67.193481 -1013.4346
18.00878 64.812859 -1014.2408
13.54308 83.726448 -1013.7266
-46.205997 123.98193 -900.26123
-61.549026 87.157631 -947.10205
-45.98983 110.56212 -964.62897
-46.601227 112.86299 -965.00122
-44.507183 114.98135 -964.64325
-46.43351 116.56603 -964.90472
-42.205799 116.61448 -964.17999
-42.163319 114.04168 -964.4563
-40.088715 112.88266 -964.55322
-41.873966 110.94295 -964.41638
-37.865746 111.92383 -964.85321
-38.073463 114.44596 -964.49188
-73.481438 86.795334 -937.38
30.072224 133.38603 -942.66675
32.018333 134.38466 -941.67493
33.721031 132.29036 -942.32153
31.650278 131.78384 -943.14337
31.607372 129.65662 -944.21307
33.565018 128.36964 -944.25049
29.604631 129.36847 -944.96637
27.81642 130.6886 -944.88403
29.355951 127.28752 -945.99982
28.044462 132.47971 -943.64899
32.447655 126.40117 -945.41382
34.899658 126.61205 -944.65997
37.303902 126.32282 -943.97253
38.437534 124.09447 -944.46497
37.272587 122.47793 -945.57886
34.741959 122.64838 -946.29547
40.362869 124.12906 -943.42358
42.30827 124.8989 -941.55707
34.038883 124.72457 -945.72443
36.980995 37.613003 -1030.7513
36.172272 35.016983 -1031.0024
38.143543 32.376049 -1031.0322
40.653446 32.330082 -1030.4143
42.426292 35.238468 -1030.2275
34.716702 32.527287 -1030.8048
31.388786 32.366291 -1029.7526
39.830482 37.82066 -1030.6874
11.513694 32.461224 -1054.303
11.320351 30.291765 -1053.2162
9.0291386 29.303097 -1053.3564
8.9199715 27.12203 -1052.2408
10.671446 26.276859 -1051.3448
12.804556 27.185884 -1051.1915
15.172769 28.020802 -1050.8972
12.337686 24.897587 -1050.1572
14.364201 23.412401 -1048.8049
11.675521 22.75033 -1049.2238
10.571324 20.729858 -1048.4221
16.269918 26.290339 -1049.6979
13.565911 29.220808 -1051.9675
6.6022615 26.302893 -1052.3154
8.0924559 24.927635 -1051.2578
9.0841894 22.98296 -1049.9922
6.6438961 23.068274 -1050.531
-52.542725 147.34433 -931.54053
-11.075291 56.712002 -1070.8955
-43.144745 88.97525 -945.41705
-45.375935 88.893654 -945.74432
-43.895008 89.596191 -947.47833
-44.625549 90.181076 -949.27441
-47.512798 88.74366 -946.07391
-48.088863 89.426857 -948.36963
-31.536612 64.006218 -1037.2465
8.52314 75.863976 -1076.3521
9.2097387 73.279922 -1077.0685
7.9368696 71.116676 -1076.876
11.289609 74.850685 -1076.3495
5.9359841 71.670174 -1077.4735
4.3749104 74.397568 -1077.9441
12.755447 73.0989 -1075.9878
14.078442 71.160408 -1074.8529
11.42122 70.038826 -1074.8964
43.389622 22.983557 -1028.1482
42.155361 21.002573 -1028.5381
39.703686 21.345976 -1028.9547
38.851494 24.086214 -1029.3184
37.503326 20.831554 -1029.4563
34.915325 20.742596 -1029.7052
36.504402 18.403667 -1029.9425
34.095261 23.413004 -1029.7828
31.517542 23.98632 -1029.6696
31.013685 26.696783 -1029.6874
35.785561 24.977419 -1029.9376
35.39835 27.15254 -1030.3448
32.941528 28.004654 -1030.204
33.093884 30.488527 -1030.3035
-71.227013 122.58998 -968.8075
-69.409676 124.45184 -967.93854
-70.301125 126.4425 -967.21979
4.9305611 84.609032 -949.57666
78.469986 117.63786 -912.39142
67.361496 58.149002 -1062.6851
70.076408 58.355915 -1061.0179
70.683258 59.228527 -1058.1455
-27.472843 20.613209 -1045.7256
-32.489109 54.880066 -1024.3574
-82.947563 111.81858 -971.54987
40.751705 104.90778 -882.44476
-81.612793 134.40912 -962.15686
-83.937096 134.26192 -962.81604
-85.899765 135.50128 -961.76532
-81.144829 98.714539 -917.5528
-81.661102 100.98149 -916.28369
-84.35833 102.1358 -916.50714
-3.2476246 101.89334 -993.50507
-2.1100969 102.88235 -991.61908
0.29077828 102.56692 -991.73163
2.6062145 102.08064 -991.9281
-4.1656656 103.40372 -990.86609
4.6678271 101.08263 -992.80792
-0.14616862 103.63498 -989.9422
1.5706687 104.25752 -988.39789
2.6953676 104.97517 -986.70044
-73.720566 135.38994 -960.06628
41.84586 56.448727 -1063.749
16.901035 117.01592 -877.27344
14.468449 117.06857 -878.04694
15.674911 119.25888 -877.45807
16.608776 121.14034 -876.96515
18.647369 121.14736 -876.08081
26.273525 43.898659 -1028.8212
28.064074 41.482956 -1028.8763
31.512913 98.176064 -948.97363
30.968645 96.831451 -950.71643
34.893074 74.331528 -1055.9147
33.952339 75.451927 -1058.2229
33.690544 76.47007 -1060.6479
36.25819 75.184166 -1057.5095
31.809107 75.323189 -1058.0563
8.2467346 128.90157 -950.65613
10.177028 130.36464 -949.72467
10.518116 128.21193 -951.02338
11.389282 125.59922 -952.13165
6.5498557 127.34814 -951.68463
6.9347067 125.42631 -952.89453
4.5557156 125.15886 -953.4848
8.99123 123.9612 -953.33655
9.484436 121.17457 -955.16107
4.109107 123.11468 -955.32294
6.0456672 121.62176 -956.18079
5.0524526 120.31108 -958.0069
6.284421 118.59667 -959.62695
8.6240873 118.15668 -958.87146
10.907797 117.77489 -957.83459
8.0197639 116.83818 -961.17725
9.9832535 115.18857 -962.25952
12.262242 114.78494 -960.85706
13.994689 113.02981 -961.80109
16.104578 111.93735 -960.59821
17.717886 109.84203 -961.31787
13.78315 111.7552 -964.33655
11.778499 112.06014 -966.14209
15.435663 109.99146 -965.50012
15.82603 108.70612 -967.82233
17.438965 109.04493 -964.01868
11.213361 111.11583 -968.72034
8.970912 111.5904 -970.08307
6.3780866 113.10966 -969.16266
19.256981 107.27577 -964.5556
21.403177 105.91778 -964.20782
24.493155 104.88888 -964.22272
19.80625 105.96654 -966.83942
27.504503 105.22277 -962.32074
25.259838 103.53635 -966.39142
27.946491 102.17946 -967.70551
9.8940935 113.6091 -965.12408
7.8042388 113.81351 -966.61224
6.2323256 115.14447 -965.31927
4.3192749 116.37299 -964.29626
6.663301 116.11647 -963.29468
5.7160234 114.25792 -967.3783
3.6388619 114.2191 -968.66473
1.7047799 115.20876 -967.59351
4.2261229 118.77934 -960.42792
3.5497549 117.74975 -962.34821
12.447196 131.40594 -948.88715
14.795537 130.54741 -949.4071
15.168192 128.28581 -950.77521
17.59 126.73347 -950.93054
19.607508 127.82608 -950.15759
20.806419 125.59244 -950.4021
17.312639 124.32777 -951.47772
17.85129 121.44647 -951.81342
15.437655 123.10338 -952.11725
13.425796 121.85557 -953.13409
20.179949 121.11563 -950.94806
11.539721 120.82861 -954.48553
13.6869 119.88768 -954.15973
21.31068 122.87199 -950.34271
23.164824 121.54283 -949.73096
13.261597 124.11458 -952.26764
9.7602358 132.31558 -948.47711
7.6574779 133.02057 -948.12543
30.162127 102.36417 -965.72607
118.02897 135.71674 -892.83899
116.59441 135.19359 -895.5152
115.08955 133.84909 -897.07843
113.66048 131.59901 -897.94049
12.497732 80.406128 -1022.0875
12.081895 81.766541 -1020.3589
13.540021 81.332565 -1018.5278
12.024574 82.981003 -1018.241
12.002499 84.120132 -1016.0859
11.589309 85.327698 -1014.3664
10.296896 86.956154 -1013.1421
9.9012127 88.20063 -1011.3603
7.9048529 89.302139 -1011.4644
6.0133152 89.215492 -1013.1263
10.312337 84.407341 -1017.9865
8.1232634 84.630325 -1019.8398
8.3268442 85.737961 -1017.5896
14.703202 80.821922 -1016.6871
14.678865 81.843346 -1014.6729
8.8097687 86.949135 -1014.9113
5.8387175 90.386726 -1011.1104
9.0943766 89.709282 -1009.5682
11.612925 87.194237 -1010.7246
12.699624 87.414497 -1008.5112
13.278546 85.684372 -1010.4395
51.933613 120.96102 -871.92023
47.76226 28.545069 -1028.058
45.200428 29.575108 -1028.4729
46.609402 31.739431 -1028.8062
48.402622 33.712288 -1029.4302
49.929192 35.755039 -1030.4189
48.837585 38.079163 -1031.1189
45.842819 38.486546 -1030.7805
45.32288 34.028572 -1029.5033
50.930088 33.013641 -1029.5083
44.749287 36.477879 -1030.1743
-32.335243 75.452415 -1022.1174
-16.069704 104.18356 -894.75293
-1.6600134 108.70061 -980.83917
0.22080092 58.737171 -992.83289
-0.46520895 57.675297 -994.68323
-100.78857 100.34472 -929.09863
-100.75941 102.08492 -927.17249
-101.79116 104.68001 -927.26239
-98.815842 101.21228 -925.42725
-97.34201 99.484474 -925.85699
-97.180321 97.785316 -927.84119
-95.526642 95.382042 -928.67358
-100.14397 103.3166 -925.26404
-98.250488 103.09288 -923.46436
-97.403938 105.09444 -921.92352
-95.451981 105.53806 -920.651
-94.267448 107.46676 -919.54767
-95.651192 109.55066 -920.02808
-95.189926 112.08836 -919.70221
-97.527573 110.55297 -921.10907
-96.818336 113.50573 -920.82068
-92.802238 112.6424 -918.4425
-90.18235 111.2264 -917.06274
-98.607368 115.04944 -922.2558
-99.80645 117.14311 -923.73907
-98.493538 119.39414 -923.7691
-100.58709 114.14423 -923.85925
-95.86795 119.43106 -922.41016
-94.548523 117.50446 -920.62372
-101.33809 118.08998 -925.63892
-102.50556 116.34022 -927.57129
-102.2923 118.99097 -928.01508
-102.74136 119.58601 -930.24469
-101.88464 121.4243 -928.34338
-101.05032 124.43812 -928.71844
-100.44389 122.78391 -926.9118
-99.214485 121.28888 -925.14386
-103.05103 118.01844 -932.09741
-103.10073 115.84859 -931.1217
-103.20807 113.90416 -931.74969
-103.33504 113.46609 -933.96448
-103.30663 111.18941 -934.50665
-103.30086 110.83427 -936.71381
-103.16665 108.53307 -937.47009
-103.3069 112.29515 -938.41663
-103.1771 111.82438 -940.73822
-103.07017 106.94707 -935.85681
-103.03616 106.97243 -933.71619
-103.12859 109.0823 -932.05804
-102.85355 104.82781 -933.13611
-102.83241 120.56033 -932.19623
-103.08273 109.36952 -940.89929
-102.91602 110.11546 -943.32129
-103.1272 113.82597 -941.74103
-102.93498 114.35307 -943.74445
-97.720245 123.04723 -925.50885
-95.85643 123.56669 -925.08374
-94.807076 121.96466 -923.61383
-93.968384 124.01443 -924.42462
-92.719162 125.81516 -924.66736
-90.905983 126.84832 -923.41803
-90.357323 125.18845 -921.32831
-90.746109 129.26776 -924.65961
-90.992332 131.33015 -926.26239
-89.383881 129.24963 -922.83789
-88.033745 128.99751 -920.79706
-88.405296 126.60884 -919.59558
-86.369339 129.37131 -919.04797
-88.069984 131.314 -922.85315
-92.820305 129.38403 -926.65985
-92.319489 108.2522 -918.42242
-91.797653 106.14264 -918.54004
-91.565033 103.93742 -919.02997
-91.498322 110.17954 -917.79803
-93.140968 122.39396 -922.65808
-92.336403 121.18558 -921.0188
-91.396072 120.07122 -919.42554
-90.195534 118.97678 -917.93311
-89.695168 121.25983 -918.28748
-93.375473 119.26097 -920.71967
-90.974686 116.61926 -917.8833
-93.007935 115.63746 -918.93738
-89.285095 115.32315 -916.64349
-87.486404 116.00859 -915.54456
-89.517548 113.30896 -916.68304
-85.33165 114.90865 -914.16888
-84.122665 116.97743 -913.11682
-88.18557 111.81533 -916.03461
-88.827209 109.42257 -916.54504
-88.32914 107.09299 -916.65576
-86.663376 110.73561 -915.3634
-83.690636 119.30555 -912.82434
-84.363457 121.49433 -913.63965
-86.359413 121.26897 -915.23285
-87.922821 119.40651 -916.21582
-86.790413 123.26643 -916.20441
-85.379364 125.78001 -915.90173
-95.950432 99.657829 -924.28827
-100.65421 111.8353 -923.86841
-101.08244 109.41328 -924.54462
-99.457695 110.2 -922.62146
-102.21131 109.65453 -926.72272
-102.63116 111.41344 -927.82581
-103.06966 111.52092 -930.23621
-102.42671 107.45712 -927.85809
-102.8503 107.5226 -929.90875
-102.47977 105.01585 -929.69751
-102.35052 113.53951 -926.85541
25.080233 16.64052 -1031.9083
-96.711655 94.359367 -930.32166
-98.711929 94.962662 -931.52405
-20.895987 94.650681 -906.04547
2.7043636 156.37602 -909.15698
2.2114177 155.7892 -911.44385
0.34164426 155.34357 -912.60297
-54.469337 146.58397 -918.21838
-101.70942 101.44619 -947.53888
2.1171749 34.976879 -1028.7893
3.002068 36.883774 -1027.5172
1.4536694 38.484253 -1026.2822
-0.038839415 39.943478 -1024.8776
-1.9713765 41.263252 -1023.3066
-1.14221 42.717525 -1021.2474
-3.0653496 43.981335 -1019.3404
-1.1365858 38.038841 -1026.7749
1.1865466 41.226673 -1023.4056
1.423084 33.15818 -1029.7783
0.87930965 30.960808 -1030.7345
28.388807 100.13852 -969.76202
30.467319 97.906929 -969.1264
30.428699 100.51321 -967.77124
26.388685 99.117233 -971.75421
24.066561 100.63177 -972.85498
-50.803349 145.96683 -915.52814
36.918758 94.22599 -914.50287
37.058971 94.370827 -917.14862
114.00248 125.24819 -874.59454
115.44134 127.32803 -876.38641
-4.3582149 73.066956 -1049.0559
107.15118 150.03102 -878.09406
-11.765967 88.515305 -937.90765
-9.4473705 88.636086 -937.61169
-7.0998344 88.382095 -938.84955
-4.7459788 88.193962 -939.72229
-2.302897 88.348686 -939.6048
-2.5713696 89.010513 -937.37036
-0.31272456 89.49691 -936.3573
-8.8439703 34.922642 -1058.6195
15.625961 95.192711 -894.64191
17.953947 94.512421 -895.72229
15.513602 94.078667 -896.75568
44.576233 96.914871 -900.67426
-38.916256 144.18886 -945.67523
-40.737007 145.20946 -944.12463
-0.016989404 60.507439 -989.64917
-36.741379 91.008568 -915.42468
-34.675026 90.443291 -916.53656
-32.023869 90.717361 -915.66827
-3.9034569 90.316292 -923.30176
30.317484 119.6729 -875.37738
29.444904 121.68194 -875.14117
30.914673 124.11574 -874.52991
-28.029112 63.595551 -1065.528
-29.457008 62.322536 -1067.137
-29.576864 61.767563 -1069.8486
-30.541227 59.693878 -1071.0223
-32.593075 59.126995 -1069.213
-34.084019 57.415714 -1069.319
-33.256718 53.335148 -1069.877
-31.398535 54.158321 -1070.6011
-29.877783 55.958538 -1071.6888
42.586548 73.146988 -1053.5852
41.58308 71.842903 -1051.7811
43.900681 74.189705 -1055.152
46.270603 74.21862 -1055.1381
47.529167 72.903648 -1053.3064
49.097954 73.76815 -1054.4684
50.165321 74.890968 -1056.1418
52.359852 74.929558 -1056.3821
46.098587 71.875298 -1051.989
45.766632 70.495445 -1050.3956
43.872368 71.901833 -1051.927
44.609489 69.203804 -1048.8921
44.225784 67.624878 -1047.2258
42.227448 69.391403 -1048.8469
39.812206 69.33548 -1048.4552
47.868259 69.667107 -1049.7749
42.480442 66.137894 -1045.4594
46.630348 66.486122 -1046.5918
46.329861 64.65773 -1045.074
46.1735 62.672153 -1043.6295
44.642792 65.910339 -1045.7021
43.770828 62.350529 -1042.7639
41.871925 63.802616 -1043.2959
45.72324 60.949699 -1042.3411
45.011936 59.046391 -1040.8037
42.870743 58.835262 -1039.9242
48.077755 63.561127 -1044.729
50.108688 63.503235 -1045.2362
51.738548 64.726349 -1046.5157
48.414188 67.153755 -1047.545
14.12767 55.841087 -1065.6569
13.36883 53.490456 -1064.7504
15.825541 54.503696 -1064.307
12.342438 51.289814 -1064.0112
11.299327 48.867348 -1063.1569
8.853364 48.405453 -1063.7491
7.1583109 50.047298 -1065.129
8.0827475 52.569786 -1066.2112
10.828397 52.698788 -1065.3168
12.545094 57.191349 -1067.0135
9.9553442 56.602768 -1067.7468
11.125566 58.481613 -1068.2866
68.493263 131.28494 -924.24036
-15.300105 55.936363 -999.79657
-12.188476 109.80952 -979.88727
20.754742 110.38391 -956.2616
19.291672 110.44363 -957.94922
19.242397 109.34438 -959.84546
21.286816 107.8434 -960.16388
18.858192 112.18369 -956.36768
23.388533 108.01822 -958.40698
25.768581 107.46761 -958.57904
27.481705 107.73786 -957.06635
29.597647 106.48285 -956.69885
30.52017 107.1805 -953.72443
30.582066 104.70601 -958.36029
30.161171 104.35279 -960.96606
26.826485 109.23798 -955.09424
28.838686 108.13124 -955.01489
22.179897 106.52785 -962.12769
22.821182 109.19476 -956.60059
31.917933 102.95307 -956.57343
-67.937126 104.24054 -967.77118
-67.262848 106.82926 -968.52563
-69.28363 105.91043 -968.44501
-8.9838333 50.967575 -1007.3016
-4.1841097 41.966614 -1062.4921
12.389987 116.2026 -958.7146
-24.960167 148.01408 -904.82013
-26.284624 149.05186 -906.3158
-28.509686 148.59322 -906.35699
-29.378424 147.19357 -905.00226
57.949497 146.53026 -877.94452
56.506783 148.53375 -879.34729
57.870392 149.94081 -881.29816
55.411579 150.35094 -881.11658
55.174248 146.9866 -877.69373
52.772713 150.33134 -881.06812
60.679138 149.3949 -881.23517
61.900669 147.97171 -879.71576
64.162712 148.11089 -879.55493
66.743454 148.88925 -879.74054
65.632782 150.08176 -881.74664
60.643024 146.61684 -878.32104
67.338882 151.37157 -883.2384
69.764511 151.62724 -882.83783
70.745239 150.69902 -881.01917
69.533699 149.22803 -879.37976
72.750931 151.62698 -881.84747
71.649879 148.8235 -878.34613
74.904449 149.19641 -878.23621
74.729645 150.90588 -880.46948
77.119339 150.87122 -879.99622
71.209488 147.22081 -876.48492
73.210396 148.02147 -876.98541
75.198425 147.59406 -876.01544
75.622337 146.28885 -874.25378
77.531883 145.7245 -873.18359
79.610023 146.93672 -874.13959
81.564026 146.34087 -872.99762
83.77594 147.26974 -873.80463
77.747864 143.92169 -871.7428
79.684464 143.11383 -870.90149
81.458702 144.54756 -871.43109
76.208969 142.4734 -871.36072
76.252808 140.14471 -870.5
74.141212 143.01048 -872.07233
72.170311 141.98891 -872.04291
72.211006 139.71411 -871.14752
79.856049 140.83112 -870.1145
82.175476 140.52534 -869.66571
83.470772 143.79329 -870.66559
83.455597 145.51689 -871.89581
69.962311 139.33501 -871.48749
68.098961 140.0976 -872.20068
67.530251 142.13513 -873.27789
69.476799 143.78287 -873.71332
70.901466 152.62268 -884.29297
72.083008 153.42935 -885.96832
73.725861 154.00072 -887.79889
74.472733 153.47005 -885.36218
72.382202 154.18217 -889.61981
69.691078 154.01427 -890.08185
73.857224 154.37415 -891.25073
77.222229 148.534 -876.87872
19.950184 69.887871 -1043.3939
-17.079607 40.63924 -1027.1218
-17.22772 42.102093 -1025.4751
-19.364952 43.096828 -1025.0823
-15.321841 42.406326 -1024.3734
-18.828321 44.311436 -1022.9376
37.637802 62.552811 -1040.9469
100.62355 127.41654 -867.44153
71.366356 125.95978 -869.69281
111.67472 128.39835 -870.31067
111.16842 130.86128 -869.5567
42.554573 43.038811 -1031.7302
-21.905281 40.060127 -1062.3142
-24.188005 40.966618 -1063.1921
-1.785292 130.6441 -882.42651
-64.353348 145.4438 -921.59302
-62.59647 146.11928 -922.36621
67.779427 30.376524 -1039.1578
-78.56588 88.42852 -928.72498
-79.326546 87.712601 -931.08435
58.49292 51.708595 -1040.9204
48.390999 38.148052 -1053.6692
-37.357632 136.22321 -897.17023
-37.862137 138.33012 -898.94556
-55.166294 86.355675 -937.37659
-54.485767 87.111259 -935.30743
-100.04989 133.22339 -942.41229
-0.088089339 16.977667 -1047.8143
17.191784 78.34137 -969.06787
16.361752 77.571877 -971.21252
17.396265 78.699471 -973.70227
-7.088306 49.481804 -1009.6884
-18.60877 117.90219 -965.13104
-77.081299 121.78471 -969.94501
65.232346 132.04295 -870.68469
-34.120808 90.022995 -985.92511
-33.458252 92.192337 -985.16797
-31.823179 82.217316 -972.4696
-31.560633 80.606781 -974.02625
-30.196037 78.849022 -973.5415
-31.240576 78.767509 -975.87927
-30.962212 77.084854 -977.57959
-32.170448 79.08065 -977.68921
-33.172932 80.964371 -978.13373
-33.25806 79.838448 -979.91797
-34.052578 80.642075 -981.87378
-33.118317 78.158348 -981.64435
-32.675732 82.313118 -974.79291
-29.392412 75.767502 -976.44788
-28.369213 73.946053 -977.48645
-28.266172 76.111145 -974.1947
-26.29631 75.276741 -972.81726
-26.580072 72.81633 -976.80542
-25.381081 73.265518 -974.74286
-23.463619 72.475891 -974.21881
-21.942446 71.073372 -975.44965
-21.868862 72.482353 -973.03925
-21.91819 73.751381 -971.03809
-28.866413 73.164719 -979.49768
-19.986465 72.295311 -972.24335
-18.017086 72.319412 -971.2876
-15.70026 72.425301 -970.29053
-18.352713 71.270584 -973.32965
-19.088968 70.189659 -975.53955
-17.80448 73.275284 -969.48523
-19.417208 74.267639 -968.55194
-21.436234 75.145462 -968.43085
-25.413874 71.415268 -977.7511
-18.791224 69.074867 -977.3667
-20.054211 68.463264 -978.95483
-16.90863 70.315491 -974.58179
-31.403503 76.275208 -979.70337
-30.58098 74.466331 -980.60968
-7.9889307 61.17778 -1073.3115
69.904221 111.49272 -879.72925
67.375511 111.16562 -880.02948
66.304962 109.66345 -881.59277
67.655006 108.66166 -883.50903
70.156197 108.95084 -883.57263
70.971252 110.16759 -881.48737
72.849831 109.7349 -882.11456
74.810455 110.38761 -881.05762
76.294373 109.64112 -882.4881
76.465454 108.75807 -884.56427
74.4048 108.25581 -885.6181
78.26989 109.73411 -882.63971
79.429985 110.887 -880.8028
72.339622 108.63962 -884.43524
74.928078 107.73084 -887.79291
72.865959 107.29381 -888.89832
69.94886 107.02864 -887.95587
73.176193 106.94285 -891.25024
71.052582 106.66526 -890.02466
70.669884 107.9914 -885.79053
-87.372002 86.607208 -935.45129
-84.091827 86.809494 -935.3551
-89.269814 87.066536 -933.89337
-90.955605 86.747551 -935.67987
-93.574013 87.228943 -935.89435
-95.927124 88.688408 -934.78998
-90.514511 88.046555 -931.93665
-92.684677 88.668922 -931.8927
-94.270493 88.466278 -933.47888
-93.361687 90.574112 -930.07391
17.764053 82.666077 -984.62311
17.75753 83.258636 -987.03748
17.834229 85.467659 -988.27563
18.107689 87.644432 -986.43707
18.23122 84.618355 -983.56311
18.495153 86.814857 -984.1474
19.30402 88.046272 -982.03027
19.971878 90.195282 -981.49011
20.260143 92.409683 -981.54254
21.26296 93.774269 -979.99725
21.669401 95.875801 -979.33569
22.647614 97.3172 -977.56378
22.295431 92.991577 -978.0863
23.146141 92.005821 -976.10773
21.778732 99.869804 -977.54199
23.942295 96.54837 -975.67645
24.811163 98.182381 -973.82642
24.187653 94.212593 -975.09888
22.483547 100.83086 -975.22455
20.711651 102.39074 -976.0636
25.245571 93.717636 -973.32062
26.581398 94.566483 -972.11176
28.186783 94.570267 -970.7829
28.458862 92.259552 -969.48566
29.682564 91.322739 -967.64703
32.042751 92.952026 -965.79095
28.931797 89.267715 -965.76978
25.526514 92.011139 -972.13519
24.565771 90.200119 -972.46069
26.260279 90.877113 -970.52197
26.305944 89.288315 -969.08295
24.803804 87.577484 -969.38635
23.848362 85.632278 -968.43164
23.931929 88.136971 -971.75427
26.661079 96.837128 -972.29572
23.361172 90.154411 -974.56964
29.684002 95.473206 -969.81085
31.541231 95.709419 -968.02271
32.782654 95.65979 -965.88098
33.383724 98.000481 -963.78369
29.327473 88.629486 -962.76306
30.991241 90.000908 -960.93915
32.560894 92.22245 -962.20807
27.431343 87.729568 -961.15405
26.04554 88.287628 -958.90057
27.220284 89.385483 -957.04767
25.456507 86.835365 -962.0249
25.32634 86.369667 -964.36896
26.686945 87.58213 -965.95105
24.230856 85.505821 -965.92651
22.830057 84.209579 -964.81311
21.946821 84.614029 -962.51337
20.109619 84.054855 -961.44165
19.147852 82.405594 -962.48633
19.836517 81.47892 -964.7356
21.495234 82.523598 -966.15332
18.549021 79.948647 -965.89594
17.092106 81.6688 -961.45142
16.104824 82.646187 -959.53876
17.098106 84.281097 -958.54144
19.043276 85.009323 -959.44806
20.169634 86.735176 -958.59729
19.361609 87.725929 -956.82544
16.458929 79.210281 -964.50891
20.682018 89.258896 -955.82233
29.992655 90.183685 -957.89459
31.301546 92.34594 -956.87018
32.75095 94.442642 -957.96582
33.032486 96.935921 -957.3504
33.341236 94.636314 -960.5155
32.941269 99.912643 -958.02838
32.438568 97.612076 -954.67584
31.253269 95.713676 -953.23145
32.6698 101.07399 -960.25128
33.229656 99.410339 -961.828
26.321068 90.475136 -955.12152
67.34977 39.935749 -1039.7968
66.08947 38.6632 -1037.9613
68.800858 38.928143 -1042.0516
66.768028 36.341534 -1038.1594
67.911293 34.282928 -1039.6608
69.156075 34.346199 -1042.1215
64.008247 38.807064 -1036.2646
63.269791 36.808395 -1035.0386
66.367996 34.430759 -1037.2853
17.265833 93.022392 -900.07733
-23.74221 44.124237 -1026.5931
-25.370951 44.436287 -1027.9418
-78.901199 132.55386 -915.10388
5.0940228 88.897346 -922.88666
4.3718944 90.036194 -920.80103
2.2193038 90.399651 -919.94305
17.722403 78.39859 -994.35071
-97.977837 98.874298 -959.59668
-97.423645 100.00825 -961.53943
-97.729683 102.14551 -961.9447
-98.193626 105.08553 -962.03204
-98.782585 103.47416 -959.97723
-99.454872 102.41233 -957.58026
-99.078262 105.61631 -959.92627
-97.292351 105.86085 -964.20038
-98.904808 100.29426 -958.22186
-99.649437 107.10149 -958.677
-99.535194 109.5524 -959.52789
-98.789848 110.50397 -961.73969
-98.637085 112.8122 -962.37781
-98.128952 114.87789 -963.87671
-97.03228 113.58691 -966.19714
-99.258835 114.41214 -960.75043
-99.683388 116.59785 -959.52991
-99.963005 114.12773 -958.55414
-100.66774 113.66901 -956.16138
-100.16772 111.65487 -957.72961
-100.12675 118.51079 -957.94116
-100.82915 117.96177 -955.43121
-101.19026 113.05352 -954.03253
-100.97668 115.67285 -955.04236
-99.180069 118.32593 -960.96362
-98.382713 117.65067 -963.19763
-101.16497 119.80917 -953.52966
-101.36712 117.4337 -953.18402
-101.79002 116.75874 -950.98901
-101.91971 114.13823 -950.59973
-100.87891 122.05127 -954.086
-100.30765 122.67918 -956.22119
-99.936157 121.28065 -958.07349
2.8216648 78.423599 -958.84619
31.726925 114.75562 -949.10846
30.260237 113.24227 -950.06842
-30.10498 97.185242 -903.87817
-28.46578 95.864677 -905.1499
48.323807 16.680603 -1041.3679
45.849228 16.396406 -1041.6237
46.00676 14.015092 -1040.1605
43.723305 12.91373 -1039.5009
41.842079 13.333708 -1040.4388
42.023827 16.134413 -1042.1144
39.521286 16.085712 -1042.3035
7.9506598 76.148422 -1063.1187
-86.019585 91.576866 -960.77563
93.972176 112.07175 -891.28778
41.121799 57.851646 -1038.6732
39.01553 58.319626 -1038.3868
38.077183 59.978001 -1039.2339
36.189575 61.038898 -1039.4342
33.888767 60.482853 -1038.4047
32.22562 62.054955 -1038.9801
32.854057 63.68108 -1040.4243
31.560516 65.369972 -1041.5643
29.272451 65.520775 -1040.9816
-44.641148 88.442535 -926.20959
-44.355873 88.323479 -923.56268
-44.570721 89.094696 -920.495
-46.743336 88.175774 -924.72937
20.743454 129.48256 -948.89136
22.191193 130.51505 -947.29279
103.9379 123.28144 -901.27051
27.753531 158.42896 -904.39313
29.176851 158.09959 -902.64166
-15.843514 111.77633 -887.98993
-68.676636 144.2699 -922.00281
110.39434 150.29625 -884.29303
-33.206944 77.019897 -983.47302
59.190044 102.6922 -888.38361
60.694412 103.72791 -886.95795
63.143696 104.34158 -887.41919
65.496971 104.9147 -888.45782
67.345009 106.36494 -887.54089
62.547966 105.23992 -885.48132
66.508026 107.24781 -885.27545
-3.8318262 114.32256 -970.82141
-2.4320734 115.0324 -969.09113
-3.1896884 116.11501 -967.27032
-4.1521392 117.07632 -965.78729
-1.3556443 113.86129 -971.01447
-2.38766 117.84595 -964.07062
-0.049509324 117.37778 -964.26349
-0.66381359 115.6774 -967.40198
1.3906547 116.30605 -965.67505
1.035284 118.29565 -962.45959
0.091676645 119.60525 -960.7785
0.989878 120.72824 -958.94879
0.39715093 122.20288 -957.33765
-2.1550107 120.01451 -960.79425
-3.4909623 119.18015 -962.26495
-3.2862725 121.33058 -959.3302
-5.4395337 121.58797 -959.46027
3.064899 120.36519 -958.70288
-2.0968218 122.56672 -957.61322
-0.84005982 96.707375 -1002.5142
1.3553678 95.9813 -1003.2642
3.0119691 96.466789 -1001.8715
5.2031088 96.014267 -1001.6183
-30.043289 91.822151 -998.70227
-31.576672 90.160057 -998.03741
-32.834026 88.868332 -996.32281
-31.12435 89.693794 -1000.2159
-33.50716 87.031876 -997.30182
-34.319145 85.560173 -995.93347
-34.615761 85.42408 -993.71674
-34.901897 83.274994 -996.3689
-35.29977 81.305389 -995.16803
-35.062546 84.003372 -991.80145
-35.445187 79.143814 -996.55017
-35.372311 79.247025 -999.17957
-34.92778 81.077545 -1000.6534
-34.127625 87.510551 -992.62817
-33.398304 86.278702 -999.48157
-34.145554 83.908638 -1000.6092
-35.385899 77.079506 -995.38702
-35.149845 76.814621 -993.09167
-34.771271 82.800766 -998.76752
-35.482338 77.39222 -1000.0885
-35.54842 75.299568 -1001.5744
-35.465561 75.286697 -999.15833
-35.286709 74.961761 -996.93774
-35.26696 78.934769 -991.80316
-34.774487 80.388458 -1002.9488
-28.98278 59.578434 -1003.1116
-27.727295 59.503696 -1001.292
-25.768711 58.455658 -1001.1208
-23.072481 57.262241 -1001.2618
-24.835182 57.234703 -1002.7715
-25.19202 56.354275 -1004.8892
-83.538208 131.27083 -965.45374
-72.378525 105.00484 -911.53815
-72.892548 102.98612 -912.73077
-72.919182 101.01838 -913.65747
-70.610794 99.689339 -913.41376
-70.875877 97.709679 -914.75189
-68.904953 96.286697 -915.09784
-71.127693 95.766815 -916.34271
-66.486702 95.609657 -914.86371
-66.808876 97.666595 -913.2644
-68.67556 100.16277 -912.3642
-68.910278 102.28969 -911.43298
-70.404541 104.05097 -911.17896
-10.042953 30.369125 -1056.0725
41.132763 143.28029 -932.46368
38.763119 144.20248 -932.9657
37.466656 142.99884 -934.49182
38.086998 146.12743 -931.66705
35.190525 144.04346 -934.60535
36.332741 147.5191 -931.15729
4.3622503 32.937771 -1056.4294
-40.231018 96.387665 -907.26367
90.232605 111.17961 -888.19684
27.141554 73.138191 -1053.4503
28.8123 73.775078 -1054.8473
1.2887769 123.45681 -955.7533
-0.17011566 125.24195 -954.43915
-2.4274902 125.79126 -954.52972
-3.0321648 127.70507 -953.10779
-1.449242 129.5575 -951.38306
-3.5009999 124.39527 -956.08148
-6.0013714 124.89578 -956.18958
-5.5964651 127.79312 -953.67175
-6.6038241 129.26106 -952.78436
-5.4642129 131.03485 -951.32098
-3.1988728 130.88618 -950.87708
-4.2915111 132.64258 -950.03076
-3.0360284 134.3651 -948.68848
-7.6119356 131.09882 -951.75989
-5.6606493 134.23105 -949.37469
-0.77423728 133.79492 -948.56104
0.19773628 131.7104 -949.64453
1.6236811 126.27716 -953.14099
0.89535785 128.024 -951.9798
3.0482011 128.6017 -951.22571
3.0592003 130.68713 -949.8689
0.882258 134.88345 -947.56848
2.8871186 134.91716 -947.255
4.7767501 135.90926 -946.40472
0.59913683 136.82408 -946.32098
4.1966448 137.96452 -945.01166
3.8167183 133.17346 -948.29016
31.029936 37.245182 -1029.2344
33.998322 37.409428 -1030.1354
32.224525 39.408096 -1029.4193
-54.861832 110.81096 -966.84766
4.4674315 71.965317 -970.45575
14.73491 99.327263 -986.04364
12.574679 101.11744 -986.27362
10.843015 102.67204 -985.71649
10.417565 104.40562 -983.42786
14.536196 101.31215 -984.25922
8.5745821 102.84261 -987.27271
6.447516 103.08996 -988.30426
9.0158043 103.91137 -985.19727
7.6915622 105.21352 -983.81189
16.260622 101.16286 -982.73846
-61.050407 98.716743 -910.63129
1.0018613 101.45187 -993.54645
0.0528467 100.5918 -995.31897
-41.263786 140.12955 -905.2973
-10.470648 94.133781 -1007.1566
-27.483564 126.57075 -891.95795
111.79682 125.36478 -871.60889
52.009705 30.325251 -1048.6305
8.0385351 157.24417 -907.42377
-9.2081575 51.770866 -1068.1366
-5.6514406 72.850632 -1051.3917
-8.3495083 72.682625 -1051.6854
-34.947094 78.796005 -1004.4999
87.809029 146.29495 -872.30273
86.195679 144.69066 -870.98828
-64.830635 145.42133 -928.9834
-4.259027 155.77388 -907.52197
45.292583 115.0475 -940.31458
44.727982 113.46204 -941.74823
43.561996 112.02116 -943.56848
8.7605276 110.52533 -972.53619
10.61024 109.08947 -973.92688
6.6850452 111.97295 -971.22839
4.5779347 111.83138 -972.83234
4.1944509 110.70088 -975.19403
8.3813486 109.50135 -974.97382
7.9508829 108.45152 -977.37323
-34.644787 81.151588 -984.14636
-34.827263 80.119324 -986.37988
-10.9337 72.472404 -1051.8848
51.025532 150.87198 -881.96179
49.509964 151.75842 -883.40198
51.026649 152.7811 -884.44806
50.866123 154.07329 -886.42682
48.51759 154.25153 -887.04889
47.872227 155.41104 -889.29608
46.547607 153.03673 -885.61102
53.127224 153.3606 -885.0293
55.64518 153.10876 -884.71002
57.947102 153.31979 -885.74182
47.376194 151.48105 -883.53046
46.907902 150.04034 -881.86182
48.501419 148.96461 -880.20544
46.286396 148.54295 -880.27032
52.604782 154.83209 -887.58032
54.977703 155.32491 -888.65399
57.613708 155.5036 -890.02655
56.767761 154.5027 -887.3327
52.176666 155.78961 -889.78912
52.026398 156.56163 -892.47809
49.957531 156.05133 -890.69989
54.532536 151.81967 -882.86414
60.64954 152.88913 -886.19171
61.35622 153.75537 -888.2265
29.84263 19.322212 -1030.359
56.410641 16.465523 -1031.0433
58.202244 18.791872 -1030.8573
60.435005 18.831276 -1032.176
-11.909555 153.4778 -916.30988
-52.559212 103.89375 -964.25281
-11.185099 140.68535 -945.72278
-12.437008 139.4222 -947.11353
-14.797431 139.68874 -947.3125
-12.366982 142.30962 -944.32935
-14.614265 142.54582 -944.4646
-15.93651 141.3465 -945.93811
-16.689659 139.22774 -948.0827
-12.885632 137.71385 -948.62244
34.523937 120.52495 -947.07733
39.222294 38.589569 -1054.2537
31.619577 93.687599 -901.98346
-102.95832 118.20734 -941.8111
80.744911 153.67703 -885.14258
63.361336 103.43793 -889.57574
-99.977768 91.588509 -939.19641
62.145599 150.36121 -882.67285
63.287918 151.47652 -884.40155
-54.162426 107.07304 -903.30096
-55.674019 105.84326 -904.6192
-52.622467 105.52838 -903.99805
-58.022049 106.79802 -904.58575
60.433334 49.985241 -1058.7808
-43.301003 102.98792 -903.07178
-42.376461 106.03947 -900.83655
-41.108849 107.53754 -899.28833
61.023949 31.559477 -1048.103
59.619793 33.1535 -1049.1022
57.106022 32.714405 -1049.1437
59.868614 29.640863 -1047.0873
58.169579 27.699944 -1046.1428
62.043587 29.560953 -1046.9209
62.925037 27.668951 -1045.9481
64.220604 25.793205 -1044.8396
61.722618 26.050873 -1045.0547
59.209736 25.788628 -1045.0631
58.11853 23.688789 -1043.9865
66.768227 26.250751 -1044.0336
64.582619 29.488049 -1046.7382
54.75581 32.266563 -1049.257
56.301731 30.679836 -1048.0759
57.522968 29.426781 -1047.1842
67.539574 25.377371 -1041.1744
63.400597 24.017557 -1043.9902
61.906723 22.18055 -1042.9856
64.461311 22.588041 -1042.5436
57.663765 34.58913 -1050.1425
56.526096 36.171234 -1051.2443
55.27256 37.428059 -1052.1949
56.341923 39.45158 -1053.2469
58.864574 39.941887 -1053.1261
-8.3251009 79.097321 -1034.1017
-9.6303091 78.252083 -1035.4681
