# .PCD v0.7 - Point Cloud Data file format
VERSION 0.7
FIELDS x y z
SIZE 4 4 4
TYPE F F F
COUNT 1 1 1
WIDTH 1536
HEIGHT 1
VIEWPOINT 0 0 0 1 0 0 0
POINTS 1536
DATA ascii
27.831486 156.91869 -941.6759
28.358198 158.16803 -940.05872
27.079784 159.45969 -938.46814
45.493652 127.43945 -883.62354
45.487583 129.82544 -883.02277
41.844727 145.59242 -945.89594
43.506222 146.7726 -944.33484
-84.590157 106.24159 -977.52893
32.428856 103.19006 -956.6001
-57.589756 92.432541 -939.72937
-58.539585 92.383621 -941.72931
-57.7304 91.952362 -944.00739
103.04286 121.26351 -899.05188
104.55368 121.89744 -900.77679
67.795357 29.993774 -1048.1466
67.587845 32.705807 -1047.2877
66.285568 31.725222 -1045.4039
64.90313 30.21991 -1043.7201
104.90617 155.42439 -885.71368
-23.073067 23.454943 -1048.2174
-24.120909 22.092041 -1050.0712
-24.676304 20.433292 -1052.6448
-24.502087 25.663523 -1048.7135
-25.610098 24.768871 -1050.6213
-41.162971 99.307327 -965.52496
14.515773 147.34784 -951.6535
13.393095 149.2233 -950.43433
14.401528 150.63622 -948.95105
13.643524 152.21919 -947.48712
14.795673 153.8181 -945.98871
11.446648 152.14484 -947.46851
10.003815 150.97169 -948.61145
8.7180738 151.92661 -947.33057
10.788668 149.4727 -950.30963
8.562933 149.26381 -950.40558
6.3706026 149.2729 -950.25745
3.7833366 149.02301 -950.55457
8.0919333 147.35146 -952.20984
6.3752723 146.29008 -953.08661
3.6646016 146.54877 -953.01007
2.1879601 144.35466 -954.99158
5.7926445 150.70854 -948.56427
3.4832611 150.83856 -948.50507
2.1173184 152.27873 -946.80634
12.197105 147.80316 -951.70013
10.840923 146.37114 -952.90308
6.6309085 152.22629 -946.61194
5.0707951 153.35243 -944.92157
10.301705 153.09966 -946.0304
11.391837 154.40855 -944.41595
9.2504435 154.21513 -944.08344
13.548649 154.97617 -944.36676
8.3900995 155.13681 -942.37402
7.0169363 156.02219 -940.67163
5.5640993 157.15584 -938.78766
4.6887617 155.99953 -940.87274
9.5350227 156.12941 -940.82837
3.2761347 157.8643 -937.70349
0.65010059 157.73169 -938.23346
10.551388 157.11636 -939.17468
11.743743 158.1266 -937.23383
9.2512999 157.66576 -937.53101
7.7071476 158.1125 -936.31189
6.5607243 158.76183 -934.46875
8.8648548 158.89323 -933.88147
9.9586554 159.53767 -931.62299
11.188332 159.03836 -934.13007
13.342585 159.52911 -934.17676
11.926031 156.3602 -941.46106
2.3342907 155.48766 -942.03088
-0.087722503 156.36594 -940.92389
0.63870412 154.85658 -943.25073
7.0659266 153.91335 -944.17816
4.3220229 158.75105 -935.07434
2.0960057 158.6272 -935.8158
5.1152945 159.26309 -932.72144
3.4921613 159.69319 -930.3764
5.8133278 159.60645 -930.79095
7.9672661 159.7164 -930.29651
7.2421875 160.08455 -928.27362
8.9613104 160.63712 -926.58624
11.400264 160.96809 -927.40222
11.855947 160.38182 -929.76013
13.994727 160.62988 -931.11292
13.127886 161.97746 -926.36121
11.549456 144.47668 -954.02655
10.054014 142.70001 -955.42303
13.858918 143.98727 -953.69403
14.560023 141.80733 -954.67273
16.849676 141.04214 -954.29138
16.372448 139.2399 -956.05438
5.7589173 160.34993 -926.52649
3.4364858 160.09285 -927.42175
13.066991 162.87061 -923.74323
12.541176 163.44484 -920.87122
10.986933 162.65799 -922.53278
9.0860548 161.72601 -923.70801
14.930119 162.98985 -925.18927
16.930843 163.77451 -924.28876
17.437708 164.27 -921.20776
15.240156 162.43759 -927.17352
16.12109 162.18542 -929.07281
19.053347 163.94823 -925.57318
21.496086 164.02759 -927.1142
19.122574 163.49365 -927.87787
18.699959 164.24844 -923.09741
20.117516 164.5083 -921.22369
22.433838 164.57526 -922.56116
23.014244 164.41843 -924.87097
24.406536 164.69458 -921.20526
26.615095 164.69577 -921.50507
24.245842 164.71977 -919.00256
25.148281 164.68362 -917.02576
22.306822 164.60056 -917.76306
20.485922 164.32823 -915.86847
18.025162 163.99255 -915.12909
20.466459 164.53365 -918.91791
15.815916 163.96822 -916.62689
13.032389 163.49117 -915.9455
27.369532 164.52621 -923.64435
25.648302 164.37463 -925.36865
27.620419 164.1436 -926.46973
29.843719 163.71904 -927.61755
27.728872 163.63089 -928.78589
16.284113 164.21329 -919.09198
17.284458 163.32794 -912.46576
19.117126 163.04868 -910.54913
22.025177 163.47234 -910.67633
23.845478 162.87419 -908.17371
22.305305 164.11186 -913.34448
18.254187 162.13499 -908.23035
19.778292 161.48064 -905.92834
19.742426 159.8476 -902.68268
15.944442 161.40007 -931.21527
17.551825 161.56404 -932.61865
15.848735 161.57094 -907.92535
17.349302 161.08881 -906.10461
16.257156 159.79591 -903.96356
14.092351 161.80913 -909.35846
14.342287 162.67368 -911.69519
11.678774 161.5585 -909.79956
14.31983 158.6057 -902.7262
12.911624 157.03838 -900.95459
12.8799 162.98108 -913.58429
13.22568 159.55351 -904.82312
10.783553 162.83162 -914.15326
8.1327667 162.51083 -914.6286
5.853837 162.32454 -915.40265
2.9057927 161.97801 -915.72754
7.5795217 162.76566 -917.18793
7.0142317 162.53957 -919.62323
7.8454552 162.01233 -922.02875
-0.59755254 145.32585 -954.73602
-0.84653872 147.43915 -952.93573
0.98520648 159.17429 -933.50946
-1.2918568 159.08992 -933.23499
-2.6717861 159.15541 -931.32184
-5.0228829 158.91849 -930.92206
-2.6759365 158.62865 -935.07294
-7.6550746 158.5656 -930.67639
-9.0238657 158.72571 -928.68634
-10.256912 158.18851 -931.44617
1.7300359 159.53835 -931.28851
-4.9314938 158.41409 -935.17322
-3.7156363 158.02147 -937.19598
-7.0347915 158.22676 -934.88129
-6.0603561 158.60013 -932.7998
-8.2770233 157.77147 -936.70453
-7.7410955 157.25624 -938.92468
-9.6031895 157.98207 -934.51581
-11.568394 157.69226 -935.32648
-13.091757 157.14281 -937.91748
-13.101905 156.32518 -940.92096
-13.610176 157.50327 -935.27612
-14.462839 157.60912 -932.97351
-13.737972 157.955 -930.52411
-4.5501132 157.30048 -939.18445
-3.3403447 156.29515 -941.35004
-4.7167234 155.18217 -943.44983
-1.4158839 158.19391 -937.02161
-7.4453311 159.39056 -926.48328
-4.9579153 159.60345 -926.59161
-6.4730177 160.37695 -923.78674
-5.6712136 161.15436 -920.97754
-8.2778988 160.73485 -921.60687
-7.910778 160.80652 -919.01947
-1.1761932 159.52641 -929.28186
-3.8413844 159.22905 -929.14978
19.437178 162.42807 -931.73297
21.673265 162.57764 -932.38715
17.849081 160.99236 -934.62891
19.720072 160.97935 -935.79321
21.927364 161.56905 -934.9444
23.494547 160.77702 -936.72784
25.856903 161.33752 -935.29987
7.3461332 144.61227 -954.34235
4.5398774 161.71227 -913.68652
4.4015069 160.91821 -911.47253
2.3468964 160.0813 -910.72314
0.16786797 160.11746 -912.06573
0.59940583 161.29564 -914.63007
-2.2842708 158.78999 -911.29907
14.891733 163.89949 -920.92041
31.220833 163.95747 -925.64172
30.358526 164.37666 -923.35736
1.6319038 148.33739 -951.59283
2.3411176 162.18808 -918.20996
18.515724 160.44237 -904.27332
13.949159 158.32498 -938.39697
11.554169 163.46318 -917.96832
17.858963 83.393684 -992.16858
-34.155403 156.02516 -929.73712
12.74226 14.784832 -1048.9882
15.554879 14.985394 -1048.2505
14.789488 15.827391 -1051.1919
18.200886 15.346786 -1049.4202
32.022205 118.39745 -888.57422
33.433102 116.46009 -889.53961
10.354825 39.713139 -1065.7664
11.119547 37.724541 -1064.3965
-73.98613 107.83556 -977.06415
-75.210846 105.62826 -976.22797
-75.466713 109.29147 -977.82684
-19.454533 97.92215 -920.49084
-2.6297126 63.31044 -1001.5043
-0.40830696 63.939434 -1000.5078
-2.5970221 64.355652 -999.69482
24.987358 23.663719 -1039.7401
26.593845 26.090282 -1039.0129
23.707628 26.598164 -1039.223
29.712435 25.647106 -1038.8826
-5.338985 14.835824 -1049.5464
-9.4414139 14.601446 -1051.502
-10.330135 79.751869 -1081.7904
-11.345731 79.56353 -1079.0216
-72.721756 91.249245 -958.02527
-74.638237 91.737587 -959.91974
-76.786079 91.097023 -958.71033
-79.165085 91.044289 -959.0437
-80.983826 90.65036 -957.84778
-81.079453 90.114273 -955.16132
-76.738701 90.543518 -956.71271
-75.04908 90.324928 -955.00952
-77.804398 90.143028 -954.81189
-79.70269 91.673279 -960.89526
-79.393265 92.599236 -963.0462
-81.605675 93.172913 -964.46118
-82.004692 94.395576 -966.81445
-84.423851 94.659805 -967.44135
-86.085815 93.956909 -966.12805
-85.879135 92.926353 -964.00616
-87.92762 94.663795 -967.07098
-88.63562 95.899933 -968.80408
-90.226624 97.196228 -969.8255
-90.119362 94.678696 -966.27417
-90.614372 93.769218 -964.36499
-92.487679 97.638611 -968.88733
-94.296669 99.757927 -969.38165
-93.522079 101.29408 -971.62463
-88.752144 92.864098 -963.32642
-95.445198 102.01056 -969.87988
-83.612213 92.549568 -963.26727
-92.399406 96.121719 -966.99872
-93.991859 96.368256 -965.69574
-94.435028 95.433189 -963.59418
-92.455482 93.800407 -962.86365
-87.164795 144.13416 -944.66925
-101.29447 111.4699 -953.7663
-101.37415 109.75482 -951.41003
-101.08679 107.01859 -951.51941
-100.69838 105.34899 -953.61169
-100.97643 105.1936 -949.62842
-100.62347 102.60529 -949.16583
-101.07899 105.72204 -947.33148
-101.0167 105.65277 -943.4577
-101.37788 108.2975 -946.6297
-100.32493 101.00542 -947.26904
-101.09947 107.57962 -941.14453
-100.34298 105.30142 -939.79999
-98.571304 103.25048 -938.70056
-100.24996 102.81861 -954.05603
-73.344131 134.92442 -920.15411
65.963951 158.56099 -923.94135
23.739666 162.94785 -931.62323
25.792469 162.44038 -932.80945
-26.3916 62.075558 -1081.6973
-88.581161 112.4205 -926.36102
-12.925981 21.21398 -1057.8013
-8.8875303 19.434191 -1056.5627
49.233112 117.56754 -887.43848
121.9433 139.99115 -891.61523
120.70377 137.9752 -891.26849
-0.72235799 99.938446 -914.97504
-2.9760067 100.31151 -914.26947
-5.4484973 99.551926 -915.97827
-3.7712512 101.54345 -911.92126
-5.2570062 102.60552 -910.2038
-8.3656359 102.47635 -910.77185
-8.5083113 104.84106 -907.69623
-7.8917217 100.22385 -914.68158
-24.823082 130.40633 -901.00824
-23.762869 128.42601 -900.00244
-25.298946 126.48004 -900.06714
-22.636793 126.16475 -899.04218
-19.947042 125.84653 -897.89813
-21.520988 123.83877 -898.30035
-22.369211 130.3978 -899.74475
-23.422237 121.71657 -899.04578
-25.757893 121.87663 -899.72705
-22.050257 119.34332 -899.2157
-22.921507 117.40443 -900.67169
-21.394653 115.62208 -901.7373
-25.22374 117.46267 -901.26776
-26.088686 115.75874 -902.89459
-24.780704 114.15682 -904.0647
-22.402887 114.09746 -903.53143
-21.167334 112.30115 -904.75568
-22.251842 110.6043 -906.19684
-24.514315 110.80891 -906.6037
-26.228601 112.4894 -905.79834
-25.112698 108.85906 -907.94537
-24.03739 107.13043 -908.81055
-21.234158 106.88108 -908.35602
-20.520615 104.6412 -910.0152
-26.991426 119.56351 -900.67981
-28.403322 115.79479 -903.40979
-29.863729 117.41984 -902.63037
-29.183783 114.16323 -905.13995
-20.564121 109.06255 -906.78491
-18.974024 115.60677 -901.09961
-18.182417 117.25257 -899.36853
-16.462666 118.93942 -897.76788
-16.70723 121.83296 -896.90051
-19.527855 119.04175 -898.62946
-19.092775 105.73733 -908.80225
-17.215757 106.24349 -907.99402
-17.406393 108.33664 -906.44092
-17.425957 110.21989 -905.19495
-15.324602 107.18094 -906.85699
-13.001915 106.19619 -907.24359
-13.364716 107.99702 -905.80884
-11.639306 109.28377 -904.48926
-10.337128 110.92916 -903.02869
-8.0063419 111.19396 -902.25989
-6.7974129 112.9363 -900.68097
-10.872228 105.3559 -907.64044
-8.9750299 106.55556 -906.03961
-6.5775146 105.49318 -906.54987
-4.1545324 105.51149 -906.02893
-2.3684216 107.15231 -904.01416
-11.874161 112.57933 -902.10858
-12.07791 114.28696 -900.57959
-6.2175221 114.98981 -898.67371
-8.5699253 114.57241 -899.54321
-10.342362 115.80548 -898.66901
0.85878116 100.7109 -913.28571
0.32585961 101.75246 -911.32397
-29.07892 42.804813 -1049.9194
-29.056314 45.15559 -1048.656
-30.000975 47.186817 -1049.7667
-35.517765 120.92207 -973.7016
-87.670792 129.11584 -928.20544
-18.051718 79.820473 -1046.3723
-15.880692 80.86335 -1045.4589
-11.837984 40.434574 -1038.2859
-13.38845 41.926525 -1037.3872
21.792639 113.40379 -891.39331
-35.644638 93.772827 -932.76239
31.669085 100.52641 -942.21033
32.739376 100.62502 -940.04517
-82.179245 145.89778 -944.19891
-82.416412 146.38272 -946.74561
-28.365385 93.016167 -960.65167
-97.90892 139.47826 -953.45282
-98.814919 137.54897 -955.20215
-99.864357 134.10077 -955.25275
-100.38245 131.42288 -955.09827
-100.28834 133.14348 -952.95709
-99.987968 134.76915 -950.88525
-99.279335 136.90102 -949.4267
-98.187241 138.66405 -947.66071
-96.611603 140.55118 -948.1272
-96.951668 139.60071 -945.88422
-100.76939 130.31136 -952.65088
-101.16715 127.73501 -951.56158
-101.17623 125.89751 -953.20129
-100.90379 126.12424 -955.36835
-101.44902 123.25742 -952.86975
-101.38132 121.30141 -954.55121
-100.60464 128.28703 -956.23901
-100.19627 129.11995 -958.97632
-99.583931 131.21532 -961.15448
-100.16496 126.94911 -960.80121
-100.79572 124.76983 -957.2381
-100.93582 122.6318 -957.32513
-100.48206 125.20004 -959.44617
-53.309311 91.221443 -950.21619
-55.84906 90.972832 -950.43787
-57.397923 90.763916 -948.32611
-57.127666 91.370903 -952.68097
-59.979912 90.856194 -947.9104
-61.437504 90.580536 -949.98334
-61.112667 91.426544 -945.63776
-59.547863 91.091721 -952.70142
-63.928497 90.501213 -949.7738
-63.766045 90.703651 -952.53967
-66.097237 90.738914 -948.66907
-64.886726 91.16333 -946.80969
-65.972458 91.782143 -944.67676
-13.840833 137.07716 -898.388
97.005798 135.18372 -919.80804
96.541008 137.35306 -920.74658
98.225967 139.86949 -920.36365
94.82782 135.63402 -921.19269
92.623177 136.02411 -922.48004
90.343414 136.55571 -923.73438
88.230278 135.11234 -924.45282
88.550659 137.92636 -924.78717
96.063538 139.75999 -921.43658
93.628746 140.42075 -922.57129
86.635857 136.60918 -925.50409
84.211975 136.38806 -926.43018
82.823967 133.71916 -926.5022
88.216713 140.4366 -924.9126
85.87941 141.28546 -925.71918
83.474152 141.44414 -926.52484
93.355659 133.83226 -921.38806
92.36364 138.39151 -923.08411
81.976799 135.91817 -927.28192
80.427696 137.61989 -928.09998
81.073814 140.30721 -927.6134
78.989059 141.29077 -928.39807
79.313408 143.52266 -927.64667
76.978218 140.75638 -929.70349
84.274994 132.04073 -925.35175
87.09594 143.13139 -924.76331
86.302757 145.24283 -924.33649
9.7097969 147.98674 -893.46118
-22.881168 19.485033 -1050.3949
-20.461344 18.623091 -1049.1088
-18.83655 20.541323 -1047.1493
-18.926554 16.641768 -1050.5128
-18.224916 18.235434 -1048.4778
-18.116816 15.741497 -1054.0623
-15.360391 16.780325 -1055.3936
-16.226622 17.017271 -1048.9055
-14.511582 15.569998 -1050.3668
-11.964634 14.73707 -1051.7048
-15.227534 19.348368 -1056.9825
-14.252369 17.808039 -1047.8253
-11.849335 18.008511 -1047.2533
-9.8808451 19.100298 -1046.0975
-10.275441 15.830077 -1048.7861
-14.302654 19.6696 -1046.4691
-14.108179 21.71833 -1045.1874
-16.191263 20.749018 -1046.1981
-10.443381 15.985444 -1054.3815
-20.807758 17.140314 -1055.2689
-20.006538 19.581097 -1057.3795
-20.478523 22.315071 -1058.9489
-22.963663 18.051792 -1053.4099
-15.234158 23.572462 -1044.5564
-17.363091 25.491371 -1044.3347
-14.463855 26.020454 -1043.5348
-11.742617 26.309389 -1043.1106
-11.582411 21.577766 -1044.8444
-10.242447 23.604338 -1043.7161
-7.8411822 15.639979 -1054.0521
-7.0468893 14.493715 -1051.2142
-7.5174847 15.607961 -1048.4312
-7.6033001 17.78116 -1055.6373
-4.5906448 19.630653 -1056.3054
-2.0087912 20.172989 -1056.3713
-2.9230258 17.659147 -1055.0599
-6.6861696 19.988354 -1056.7313
-8.3842325 21.334463 -1057.6229
-10.641646 22.199104 -1058.2345
-5.9537745 22.233402 -1057.9137
-10.307512 24.227688 -1059.3156
-8.1219454 25.215801 -1059.7601
-11.576917 26.057333 -1060.3868
-4.773488 14.974789 -1052.7076
-2.5959146 14.582742 -1050.5856
-7.0438266 26.913235 -1060.6578
-18.543835 24.126303 -1059.7651
-0.65135121 14.890401 -1048.7411
0.18655585 16.442562 -1046.5049
2.408932 17.065317 -1045.5643
4.2250009 15.618781 -1046.833
4.1787624 14.71081 -1049.5334
1.971059 14.650195 -1050.6758
6.2785988 16.521791 -1045.6501
7.5956149 18.238619 -1043.9335
8.2215681 15.512851 -1046.6941
-1.2587357 18.102879 -1045.0518
-3.5583484 18.215048 -1045.3618
-4.9451618 16.616549 -1047.0273
-5.4491806 19.269993 -1045.0688
-5.4685726 21.488096 -1043.8284
-7.6528907 19.860172 -1045.1791
-3.3976786 22.685207 -1043.0154
-7.5081143 22.657114 -1043.7118
-1.4562033 21.030615 -1043.3416
0.84344143 21.455763 -1042.9275
1.3857363 23.841625 -1042.1919
-0.26196474 25.762651 -1041.8945
2.6692924 19.62529 -1043.6578
-0.7813518 27.938534 -1041.5289
5.056571 19.763577 -1043.3254
6.0239458 21.61158 -1042.3444
7.9271536 23.463047 -1041.5334
4.5665488 23.770601 -1041.8624
-7.2972903 24.643637 -1043.0114
-5.4442468 26.109396 -1042.4125
-7.5785327 26.718124 -1042.5389
-8.102005 28.781675 -1042.1429
-6.2879949 30.145487 -1041.6578
-6.3637919 32.340202 -1041.1118
-8.2918015 33.23822 -1041.1399
-10.315194 32.262466 -1041.7247
-11.905985 33.953747 -1041.5359
-4.532578 31.277903 -1041.1693
-2.5739977 32.386635 -1040.6379
-3.3509557 24.879059 -1042.4669
-3.3738883 15.245296 -1048.3492
9.8045721 22.199528 -1041.7643
8.1850424 25.814224 -1040.8711
6.490551 27.349079 -1040.7319
18.871235 71.789436 -1041.469
18.435745 72.527718 -1039.1008
18.971109 71.087219 -1037.4474
17.362301 74.318748 -1040.0286
16.297714 75.368797 -1041.8015
9.8937798 45.264153 -1033.8082
8.9208078 43.021503 -1035.2063
102.18574 138.2104 -877.93652
103.4654 139.97958 -877.79663
104.38256 137.62682 -878.11591
106.79862 137.73209 -878.37323
107.92808 140.03734 -878.35211
39.474339 30.636061 -1057.3264
41.623154 29.354631 -1056.4493
41.998486 26.847717 -1054.8948
38.904541 25.591587 -1054.3936
43.04472 24.390366 -1053.3241
36.746235 26.657024 -1055.1451
38.2915 22.699869 -1052.8002
35.691772 21.251631 -1052.1833
33.186577 19.730011 -1051.4756
45.848248 24.534357 -1053.0541
47.829437 26.687672 -1054.0741
44.435455 22.155392 -1051.9495
48.631775 24.398821 -1052.6025
50.553944 22.795166 -1051.4065
51.445862 20.245325 -1049.8976
54.250759 19.674595 -1049.4635
56.281731 18.136585 -1047.87
54.944878 16.45446 -1043.504
59.40424 18.452887 -1046.9762
57.098965 18.664577 -1041.3749
55.932598 21.736414 -1050.2981
55.348457 24.369293 -1051.705
56.184563 27.096426 -1053.1229
58.467373 22.549244 -1050.5856
61.259659 23.504768 -1050.8816
60.753757 20.682196 -1048.9121
61.811852 19.90572 -1045.6827
54.528778 29.483414 -1054.7311
56.177799 31.867411 -1055.9028
52.672363 24.559301 -1052.1053
53.646843 26.880449 -1053.3075
51.556259 27.937927 -1054.2557
52.188137 16.047768 -1043.0641
50.610786 17.889626 -1040.9327
47.788242 17.826118 -1041.1091
48.831627 20.145678 -1039.3641
46.478115 22.162106 -1038.2576
50.962273 16.083122 -1046.3265
48.294254 16.078299 -1046.796
46.767014 15.808029 -1043.9312
60.191002 25.849993 -1052.2184
52.004665 19.819427 -1039.4342
54.863071 20.277077 -1039.7
53.594536 22.409758 -1038.5161
44.401478 15.500542 -1044.4843
53.63747 32.03204 -1056.417
50.781845 32.572613 -1057.2701
48.511181 33.664307 -1058.2961
45.901817 34.845295 -1059.2739
48.189137 24.346437 -1037.3884
37.932735 20.31699 -1051.5687
38.166317 17.759924 -1050.0021
39.975285 15.694021 -1048.0656
36.451038 15.875339 -1048.6274
39.640457 15.40524 -1044.5183
37.061134 15.735965 -1043.5964
34.320389 16.066608 -1043.2102
41.504341 15.91008 -1043.1337
36.799522 17.60071 -1041.4362
41.183952 17.736816 -1041.1285
39.554955 19.340252 -1039.9773
32.741383 81.2089 -1075.9496
35.712112 80.658157 -1072.3866
1.9789975 79.945747 -1075.5488
-0.65846723 79.812286 -1075.6047
-3.0951686 79.230385 -1073.7435
2.9726145 79.480438 -1073.5332
1.3495218 78.758492 -1071.5385
-0.7518388 78.056343 -1069.766
-1.0581576 78.836899 -1072.0049
3.9833372 78.763054 -1071.222
-5.4922853 78.559288 -1072.085
0.21951032 80.241219 -1078.2972
-1.116408 80.272522 -1080.5836
-3.570369 80.104286 -1080.3701
-5.0098948 79.935127 -1077.606
-5.978889 80.002159 -1080.3534
-7.5472255 80.033615 -1082.1636
1.3576393 80.426964 -1080.5038
3.6380553 80.547234 -1080.7396
2.3855567 80.351845 -1082.832
3.538729 79.553551 -1085.7225
1.1198298 79.810722 -1084.7032
-2.2226434 80.025169 -1082.5316
5.94941 80.639809 -1080.9285
8.6063623 80.746765 -1081.4221
7.0212069 80.454445 -1083.2297
5.9185352 79.46669 -1085.619
4.72542 80.502571 -1078.42
-3.3660209 79.742172 -1084.4764
-5.7194095 79.723816 -1084.8397
-3.3830047 78.695419 -1086.6971
-3.7749701 76.618996 -1088.4374
-5.2004929 74.562576 -1088.4047
-6.9876099 77.107529 -1088.5173
-8.0423813 79.249245 -1086.6464
-9.3452864 74.96859 -1088.7764
-11.149833 76.225113 -1088.9415
-11.970509 78.624352 -1087.2394
-13.133831 75.038139 -1088.9436
-3.1305807 79.7519 -1075.8602
-6.4045334 77.610985 -1069.7664
-8.664979 77.114517 -1068.6145
-11.368772 77.015274 -1069.0087
-11.844384 77.79129 -1071.5098
-10.261412 78.625458 -1073.1913
-8.6365871 79.259598 -1075.0046
-7.6716275 78.628952 -1072.7683
-7.2656822 79.761635 -1077.1763
-12.605318 78.548317 -1074.0461
-15.06838 78.207428 -1074.7947
-16.998274 77.076775 -1073.2213
-16.266964 76.426514 -1070.4846
-18.174492 77.336624 -1076.1165
-20.908978 75.682327 -1076.9176
-18.92322 75.585228 -1071.1021
-13.2581 79.033257 -1076.6483
-14.086785 79.077194 -1079.0756
-16.685778 78.314278 -1079.4979
-19.09989 77.089844 -1078.7218
-15.810025 78.611435 -1082.2114
-17.541533 77.44117 -1085.1501
-20.125309 76.15612 -1084.5144
-22.123444 73.625397 -1084.8767
-20.656757 74.113625 -1069.1537
-20.436098 76.225128 -1081.4418
-9.5732851 79.610878 -1077.4034
-13.762069 79.141327 -1083.8959
-13.713026 77.03038 -1070.203
-17.536274 75.284477 -1087.9135
-21.090839 74.64357 -1072.1825
-23.461681 72.639313 -1073.3516
-25.116602 70.306389 -1072.2711
-24.946194 70.959236 -1075.058
-24.79439 71.509529 -1077.7863
-24.114676 72.340218 -1080.3578
-26.299185 69.095108 -1077.5142
-26.846191 67.872856 -1071.8969
-22.911114 73.848274 -1078.4121
-24.527082 70.416313 -1083.2673
-21.730391 74.65374 -1074.7296
-20.914501 71.194244 -1086.8638
-25.636286 68.267723 -1082.6669
-23.664175 68.068916 -1084.5507
-21.883917 66.192879 -1084.6687
-23.541643 72.645622 -1083.0977
-24.74773 98.530342 -1010.7936
23.355442 76.116806 -1061.4897
22.706675 76.838303 -1063.6318
15.343447 96.102058 -954.64178
14.006132 94.5504 -956.4516
14.582504 93.738167 -958.57239
16.629398 94.594597 -959.6778
18.87598 96.055939 -960.27094
15.325299 92.662636 -961.07178
16.626354 92.398849 -962.8902
18.498825 93.638771 -963.49774
18.499823 92.257057 -965.22559
17.747087 90.600021 -966.41888
15.85612 89.656258 -965.69983
19.23741 95.112907 -962.29053
74.9571 120.66119 -887.41827
-19.978434 135.24632 -898.58374
-18.776691 133.16801 -897.90106
-18.447592 130.5163 -897.78064
-16.142921 133.5322 -897.67651
-19.406481 128.37944 -898.04218
-16.418493 131.17671 -897.55695
-14.563262 129.26816 -897.21027
-15.081647 126.93097 -896.6944
-16.209995 124.6044 -896.71906
-18.708708 123.58102 -897.41797
-12.377192 130.37395 -897.3548
-12.217446 132.58893 -897.98236
-10.042867 133.68884 -898.22388
-12.164173 135.02028 -898.42609
-10.248983 129.74788 -896.80548
-39.093769 40.853683 -1063.067
-34.115917 48.441128 -1056.726
-33.039455 47.133453 -1054.9612
-25.453341 90.350151 -966.64716
-24.1194 88.6745 -967.90387
-70.098915 97.717438 -969.59534
0.0342866 143.3224 -956.14606
37.896709 163.6174 -922.86163
35.91431 163.9742 -921.81439
34.834164 164.25464 -919.95728
34.254032 163.96385 -923.06842
35.734196 164.29491 -917.57758
32.589657 164.40201 -920.30713
33.985172 164.25938 -915.68921
31.696484 164.36369 -915.82867
-92.825058 132.29803 -975.78204
-90.534065 133.28169 -976.39569
-101.26781 128.12265 -944.97003
-101.33594 127.04711 -942.53668
61.578159 108.44788 -901.08459
59.455578 107.70725 -901.73071
58.620525 108.42776 -899.51428
52.320808 104.59873 -909.99707
54.419559 105.18179 -909.81122
53.283882 104.99519 -907.68512
54.999825 105.33076 -911.86383
-26.707203 151.24678 -913.54803
-24.135477 151.9189 -913.56018
-22.403708 151.57013 -912.05322
-20.196341 151.93608 -910.21216
-20.311724 150.36867 -908.09137
-18.393198 150.45772 -906.38177
-97.855034 112.61826 -931.65143
15.221686 97.706192 -944.42053
85.964195 157.65259 -913.99469
83.470169 158.09637 -914.21863
78.729118 161.05942 -906.35187
76.931442 161.00902 -904.61865
77.151314 160.86525 -901.44727
79.504227 160.78151 -900.61572
80.060158 160.51393 -898.04388
78.476318 160.04709 -896.20514
81.414238 160.87932 -902.28021
81.261002 161.04062 -904.66986
74.384224 160.93581 -905.33594
73.672287 160.77721 -907.78577
75.414467 160.61131 -909.55597
83.57119 160.77748 -901.6557
55.615391 107.9935 -925.20807
104.75834 155.54588 -908.37915
104.45454 156.66295 -906.45026
106.54652 154.41112 -909.14435
108.65056 154.119 -908.25659
110.69617 152.80763 -908.32306
112.23605 153.2395 -906.6969
111.84223 154.76518 -904.85364
112.6077 151.55638 -908.05365
114.53105 150.11583 -907.66669
116.22984 150.35898 -905.83917
113.0751 149.30627 -909.23676
113.27669 147.13348 -910.19788
111.39166 148.60738 -910.69537
109.64541 150.01268 -911.01025
109.48084 151.88928 -909.9389
113.68219 153.61261 -904.97412
115.49574 152.31427 -904.75342
115.46055 153.57262 -902.76514
114.73094 155.02185 -900.95447
118.01577 149.36382 -904.05133
115.07293 145.68524 -909.47949
116.99798 145.99799 -907.82892
116.82344 152.7757 -901.20361
115.99366 154.20422 -899.40149
111.60232 155.91469 -902.89539
112.71539 156.1944 -900.96338
110.03481 155.9276 -904.20508
108.58837 155.51711 -906.01544
106.73827 156.52138 -905.36591
-18.882944 82.40242 -1042.1442
-16.655794 82.402115 -1042.8917
2.2497973 95.585945 -940.71899
0.35001639 95.566795 -941.97748
-1.7337028 95.498146 -941.25171
-2.0099134 95.67717 -939.06494
-2.9473195 95.701744 -937.13873
-4.8970857 95.565521 -935.75818
-3.1622264 148.47456 -952.38574
-5.2021852 148.02852 -953.16254
-7.093555 147.03038 -954.42352
-8.0999985 145.18864 -956.27631
-7.349072 148.97128 -952.513
-2.8141329 146.79124 -953.90259
-3.258698 145.20555 -955.36816
-5.4455118 144.98787 -955.96661
-30.989985 101.08562 -916.14435
-29.026705 100.20803 -917.04224
-26.437279 100.19847 -916.59967
-30.653214 102.41302 -914.37952
-65.740608 120.40668 -978.56659
-63.301628 122.38765 -977.98389
-61.476826 119.88471 -978.1441
-59.176327 120.27785 -977.6991
-57.278057 122.93423 -976.86664
-58.982937 125.1069 -976.68079
-61.794273 124.94701 -977.18451
-60.355835 127.17912 -976.47888
-59.087467 129.20477 -975.74274
-60.119308 131.64577 -974.96912
-62.041691 133.41118 -973.98468
-57.186638 130.15002 -975.13641
-55.341614 128.62172 -975.18091
-54.483269 126.49469 -975.48767
-56.559399 125.38969 -976.14325
-52.425896 125.35634 -975.32062
-53.959785 130.50227 -974.51135
-53.577026 133.05151 -973.21252
-56.007679 133.96391 -972.89337
-56.354317 135.89774 -970.8291
-51.667477 130.1962 -974.23376
-50.689045 127.80215 -974.53143
-52.706886 122.8253 -975.85309
-53.053417 120.37486 -976.23706
-51.054184 118.74846 -975.7713
-48.798756 116.89107 -975.06183
-54.847153 121.97854 -976.48102
-53.280674 117.82137 -976.3147
-55.586941 116.72211 -976.81293
-55.370975 137.40788 -969.32458
-56.524483 140.50104 -967.79749
-59.066261 140.67755 -967.96411
-60.257862 142.85185 -966.73846
-62.802086 142.89442 -966.91211
-50.758236 123.55733 -975.30646
-47.820728 122.19736 -974.78284
-48.728539 124.16106 -974.76959
-57.938126 132.43361 -974.25977
-57.776764 115.53535 -977.20135
-57.477364 118.24184 -977.38031
-56.983292 120.6011 -977.185
-58.890415 136.3911 -970.74805
-60.154339 138.3503 -969.30829
-62.61895 138.4455 -969.45471
-63.863823 136.58023 -970.83673
-62.866421 135.08711 -972.32709
-66.430069 136.92879 -970.77887
-67.693146 138.67947 -969.80377
-69.659256 140.75426 -968.76044
-67.405289 135.61963 -971.96875
-66.872231 133.87401 -973.71204
-69.545242 136.25993 -971.60339
-66.589302 140.21996 -968.87976
-64.061188 140.49683 -968.4903
-67.740593 141.69266 -968.05939
-67.141777 143.2108 -966.71753
-64.936951 143.519 -966.36621
-64.140907 144.74451 -964.73492
-68.640327 144.29251 -965.14508
-70.561363 143.91916 -965.43396
-71.253464 144.97559 -963.36902
-71.204247 145.98029 -961.2489
-71.782722 142.74658 -966.88147
-74.327255 142.6841 -966.82544
-75.101791 140.95264 -968.86243
-77.013847 139.83028 -970.10181
-79.413391 140.10919 -970.12421
-49.76223 130.62207 -973.69501
-49.180977 132.55717 -972.66766
-48.379585 134.02794 -971.24152
-47.851517 135.42993 -969.66254
-49.811703 136.52249 -968.79889
-46.779102 136.72607 -967.92078
-50.940392 133.81023 -971.98865
-52.055199 135.11086 -970.8808
-53.392395 136.3083 -969.79651
-47.526741 130.6707 -973.22797
-45.086056 130.98378 -972.49054
-46.197006 128.80405 -973.43994
-46.161446 133.73961 -970.91333
-44.336559 133.86234 -970.35657
-42.461468 133.91188 -969.70306
-40.908527 132.11845 -970.77222
-40.499111 133.90886 -969.25342
-39.946056 135.33809 -967.56073
-44.068031 135.46268 -968.5545
-43.217056 136.74246 -967.07959
-42.711666 130.21063 -972.19617
-41.426476 127.928 -972.57275
-43.252174 125.35476 -973.34668
-40.391304 123.53025 -973.21106
-50.597847 138.26787 -967.64844
-49.505836 140.31139 -966.48663
-49.853703 142.70302 -965.47125
-52.351654 139.52094 -967.45972
-54.260342 141.33148 -967.07336
-53.415802 142.95053 -965.8316
-54.613407 138.98784 -968.16205
-52.016373 143.92065 -964.74286
-47.84959 126.97399 -974.10461
-45.450436 126.51865 -973.66858
-80.820717 141.32446 -968.90588
-80.060806 142.62486 -967.00623
-77.918716 142.88838 -966.42218
-55.455963 143.175 -965.94092
-56.953266 144.31082 -964.90546
-59.477253 144.40285 -964.87036
-49.033779 119.94704 -975.30347
-62.821312 127.68274 -976.72614
-64.048798 129.77638 -976.32446
-62.742374 131.52478 -975.38531
-76.307045 137.66298 -971.68225
-74.11145 136.8522 -971.92975
-72.031883 137.80972 -970.81897
-48.362896 143.65068 -964.36542
-48.610588 145.30847 -962.53784
-49.741856 146.34595 -960.96875
-57.982235 134.82664 -972.28113
-60.632706 135.05473 -972.17426
-83.159912 141.1823 -969.36304
-17.449339 20.160751 -1057.4856
-18.205854 22.029581 -1058.5723
2.757164 90.974495 -1028.6108
2.8755 92.095749 -1026.6407
2.2112911 89.853493 -1030.6814
1.5080224 88.928078 -1032.4833
2.3182712 87.915192 -1034.0304
2.0356793 86.739952 -1036.1241
4.4649897 87.360214 -1034.2782
-0.77383322 88.757401 -1033.2307
0.57257056 90.765968 -1029.4653
-1.459954 91.524101 -1028.4987
-3.4818666 92.249756 -1027.5289
-1.237416 92.632942 -1026.6299
-1.6547608 90.438324 -1030.3912
-3.5703299 89.972076 -1031.4282
-1.2402548 93.763405 -1024.7153
-0.98276788 95.050278 -1022.4337
-2.9602184 94.555054 -1023.5579
-5.5248728 94.781044 -1023.2949
-6.4038925 95.819572 -1021.4592
-8.4149876 95.020607 -1022.785
-2.0670176 96.519424 -1019.9846
0.82323951 92.871399 -1025.8668
2.6791239 93.302292 -1024.6683
4.3889937 94.331413 -1022.2926
2.0880654 94.54129 -1022.6703
-4.740221 96.723549 -1019.8422
-6.9556756 97.042694 -1019.2908
4.9259472 95.696617 -1019.7094
47.129578 111.00036 -938.79578
-29.757883 86.719963 -979.63147
-30.900003 88.777344 -979.84033
-31.814129 89.900803 -981.3125
46.666485 69.491608 -1078.6442
48.567547 67.198723 -1077.2719
45.589581 71.766434 -1080.0521
47.167854 65.03479 -1076.1221
44.485786 64.939415 -1076.0951
49.967159 65.034721 -1075.9937
52.809414 64.439125 -1075.4652
53.533005 61.975658 -1074.093
54.823826 66.355652 -1076.3202
54.201641 68.445282 -1077.6262
52.020279 69.709793 -1078.6338
51.935349 60.061958 -1073.1804
49.261417 60.556412 -1073.6052
46.710049 60.564327 -1073.6907
48.35075 62.796722 -1074.8676
56.445477 69.563705 -1078.2111
57.076256 71.529388 -1079.6971
59.200157 69.69693 -1078.2142
60.871502 67.823349 -1076.8834
62.031422 70.571808 -1078.8622
55.117393 72.926102 -1080.6964
53.777325 74.978806 -1081.642
51.783123 76.79306 -1082.3171
54.763237 77.930382 -1081.6876
57.948204 78.661659 -1080.2036
58.045197 79.569977 -1077.3911
54.208549 80.252762 -1075.0201
60.828503 78.483917 -1073.8582
53.581924 80.123573 -1071.2822
64.18174 76.463379 -1075.4299
52.673992 79.540054 -1080.1405
50.737919 80.656174 -1077.1028
52.868378 72.123962 -1080.228
50.642582 71.785912 -1080.153
47.901844 71.964294 -1080.3379
49.45628 73.530533 -1081.4373
49.18359 75.724236 -1082.3728
46.083397 76.603043 -1082.7275
43.555473 76.221046 -1082.5786
42.170376 79.081406 -1082.4392
41.170498 76.069016 -1082.4628
38.761948 75.613007 -1081.9557
43.031372 80.863884 -1080.3314
44.235901 81.381134 -1077.3314
42.471256 81.19664 -1074.7181
40.440125 80.342369 -1081.2153
45.592865 81.080841 -1074.0658
47.559864 80.762688 -1072.4275
47.863174 80.071762 -1069.3375
44.176491 78.922836 -1066.9176
45.215523 76.894722 -1063.5001
43.43029 74.375198 -1060.1727
50.35659 79.593086 -1068.0961
51.816502 77.411522 -1064.4989
46.876137 72.220032 -1058.1818
52.237152 72.032654 -1059.1517
49.377373 80.811241 -1074.6857
52.054371 80.495193 -1074.1742
58.108177 73.616653 -1081.0438
60.959049 74.604187 -1080.7599
53.077652 80.391693 -1077.449
47.250633 79.936424 -1081.4485
46.05682 81.072357 -1079.5067
48.701893 80.789978 -1078.7821
36.797413 75.082993 -1081.3942
36.384014 72.956261 -1079.9636
54.628849 77.211159 -1064.8044
59.231926 76.176292 -1065.5605
63.627148 73.594223 -1066.047
57.136292 77.97699 -1066.9757
52.770988 75.71981 -1062.7174
59.906582 73.050491 -1062.532
60.271496 69.518288 -1059.6553
64.219864 66.635551 -1059.5078
59.550087 66.366051 -1057.1687
66.929504 67.445442 -1062.9434
56.673866 71.66375 -1060.0217
53.700283 73.720276 -1060.9895
51.000347 74.126991 -1060.8158
49.875679 72.37571 -1058.9086
50.927013 70.429085 -1057.4573
52.809353 66.688538 -1055.2924
53.780525 69.630966 -1057.6041
48.909794 65.624382 -1053.4093
50.192963 76.063057 -1062.7091
56.099976 79.313873 -1069.578
58.913841 78.330475 -1069.531
42.446602 80.702904 -1071.8616
40.509464 80.121887 -1070.0142
43.047024 79.91803 -1069.2063
38.034603 80.32457 -1070.9658
38.704258 79.378693 -1068.3693
39.611721 78.479706 -1066.3853
41.793198 78.0485 -1065.4479
39.286087 77.488739 -1064.5986
38.614277 76.280106 -1062.5729
40.413967 74.695518 -1060.3413
38.03854 75.096107 -1060.7224
35.343834 74.903748 -1060.1104
33.514915 76.008293 -1061.9025
34.184471 77.036385 -1063.9398
31.64784 77.04583 -1063.8527
30.209305 78.150452 -1066.2177
35.029804 73.703186 -1058.1083
36.764603 77.108932 -1064.0356
37.888401 80.874565 -1073.3059
39.621784 81.323036 -1075.9045
44.210434 60.74548 -1073.7992
40.437901 74.013725 -1081.3676
40.931164 71.92099 -1079.9084
43.308262 71.804764 -1079.9746
38.839497 81.291199 -1078.7561
64.617729 70.190384 -1077.9662
67.986794 71.867378 -1074.4196
66.316223 74.330544 -1074.2234
64.89183 75.258247 -1071.6804
65.325539 73.767242 -1069.1337
58.266514 76.167603 -1081.4724
60.324158 76.9254 -1080.5637
57.19146 65.619904 -1075.6996
58.475723 63.791672 -1074.5785
31.352316 75.79847 -1061.2728
66.468613 72.134979 -1077.0792
44.943535 74.071823 -1081.6396
63.079666 68.263969 -1077.1868
63.458168 66.121658 -1075.6318
66.439919 65.5056 -1075.0312
68.833687 64.154037 -1073.2682
70.422668 65.206139 -1069.8132
67.992493 68.096603 -1075.2622
68.519943 70.619675 -1072.2511
68.504707 69.912994 -1069.63
68.953873 67.766983 -1067.4819
66.988037 71.967072 -1069.2826
65.507668 72.255859 -1066.8546
65.705368 70.501251 -1064.8228
67.654121 68.362671 -1065.3899
63.432449 64.174988 -1074.4978
61.15641 63.236771 -1074.0662
59.65247 61.974529 -1073.4673
59.378204 59.940201 -1072.3169
61.283989 59.167984 -1071.6516
63.451878 58.727867 -1071.2177
63.234138 62.201469 -1073.3219
68.460869 66.123878 -1064.2229
69.466217 63.30838 -1063.2767
67.931969 64.956535 -1061.8854
66.313622 64.349899 -1059.4053
66.699051 61.794132 -1057.9706
69.283257 58.468723 -1058.775
66.112511 66.530678 -1060.9971
64.443802 68.489548 -1061.2286
62.386375 68.340691 -1059.7788
62.031914 66.515671 -1058.2809
63.723003 64.829895 -1057.8989
61.483486 64.509857 -1056.7621
60.248714 62.367065 -1055.0349
63.389854 59.65065 -1054.6548
58.297264 60.723194 -1053.4543
63.656567 57.050034 -1053.2487
55.587975 61.982014 -1053.3108
53.310081 60.476463 -1051.5731
53.628307 57.885868 -1049.9912
51.515358 56.332321 -1048.2451
50.647179 61.557117 -1051.3118
54.292461 54.771389 -1048.3525
54.929626 64.714531 -1054.723
64.971901 63.165874 -1057.5471
64.792725 61.068813 -1056.1565
57.301712 65.892044 -1056.1432
59.387856 64.346451 -1055.8989
54.840298 67.076012 -1056.1367
58.604919 58.266411 -1052.0956
56.78965 57.092251 -1050.6832
61.075691 58.413315 -1053.0664
48.860947 57.701767 -1048.1078
61.926437 70.111588 -1060.9565
60.00193 71.287766 -1060.976
61.744869 71.852066 -1062.4316
61.753044 73.660385 -1064.2988
63.712105 72.08802 -1064.2925
61.597507 75.295288 -1066.2255
60.057995 77.030525 -1067.5553
58.388287 70.576569 -1059.723
58.36974 68.696312 -1058.311
63.408062 74.921036 -1067.811
60.30724 67.867958 -1058.4561
58.237045 72.486824 -1061.2668
57.821095 74.312424 -1062.756
57.113644 76.244148 -1064.4945
56.064281 73.33474 -1061.2432
59.736023 74.604164 -1063.9749
63.880814 75.480255 -1069.8446
63.292767 54.706676 -1051.6046
60.319839 53.850315 -1049.9487
64.989388 52.177761 -1050.777
65.75872 49.613609 -1049.7988
67.56041 51.390354 -1052.1941
68.845032 52.744484 -1054.397
64.161568 47.906876 -1047.9613
65.874451 45.463097 -1047.8228
67.906448 55.242378 -1054.8542
50.802624 53.877235 -1046.6313
50.451805 51.407997 -1045.2388
52.273277 49.599632 -1044.9119
55.24448 49.906738 -1046.0938
55.314568 52.295338 -1047.3687
9.9451513 70.356682 -994.76678
7.8084631 68.919388 -995.19409
7.3692908 67.551689 -997.12421
9.0219812 67.359634 -998.80389
10.873313 67.596588 -1000.4464
11.14045 68.916801 -998.59711
12.887008 70.500549 -998.59656
14.132217 70.712036 -1000.5919
14.133862 69.384224 -1002.8813
14.994157 72.649605 -999.46661
16.261564 74.065826 -1001.0284
16.682013 73.636414 -1003.3549
15.832372 71.227707 -1004.2617
17.063318 76.144524 -1001.079
15.278745 74.199173 -997.724
10.520494 66.331131 -1002.1671
8.5715923 65.030518 -1002.295
10.292293 65.112663 -1003.9872
11.972604 65.477844 -1005.7156
10.162164 63.963329 -1005.9058
13.552828 67.433998 -1005.0858
12.454521 67.894783 -1002.2413
14.959753 68.077126 -1007.1827
11.951266 64.302895 -1007.6897
13.550263 64.910454 -1009.3167
14.821952 65.581787 -1010.9145
11.662168 62.785759 -1009.8037
-4.5807576 94.670792 -944.45953
-14.812191 75.374741 -1062.6891
-15.259995 75.472572 -1065.0637
-17.367352 75.049057 -1066.1865
-15.730891 75.783173 -1067.5736
-19.305971 74.438789 -1067.1384
-19.19669 74.16655 -1064.7145
-20.996569 73.126709 -1063.5193
-19.155067 74.101448 -1062.4114
-17.296833 74.789345 -1061.5577
-15.251678 75.301201 -1060.4592
-22.514357 72.10807 -1065.1257
-24.259487 70.258926 -1064.9111
-22.280788 72.582573 -1067.4648
-23.411402 71.954323 -1069.5383
-25.178541 69.852989 -1069.818
-25.392597 69.112709 -1066.89
5.1102533 76.626755 -1062.901
64.464912 113.70883 -926.81732
118.14003 139.07205 -887.06934
117.71008 141.53026 -886.31012
115.90061 142.26842 -884.96265
117.80963 143.77283 -886.78033
116.82114 146.17587 -887.01971
118.80219 145.30708 -887.7749
-95.996742 93.654938 -955.5191
60.709045 49.746208 -1066.1564
20.149944 84.731544 -978.47278
95.572044 127.28703 -882.31824
97.007545 126.48314 -883.34283
96.955109 125.08846 -884.99603
75.028244 153.38399 -923.58984
37.030216 72.457634 -1056.7426
35.177921 72.293808 -1056.0339
33.454742 71.589966 -1054.567
31.079731 72.261353 -1054.9023
33.819576 70.281822 -1052.973
45.303905 79.899185 -1068.9908
21.692835 97.818398 -960.06689
24.02832 98.384331 -960.073
-15.039152 87.684212 -961.78162
-79.732437 133.63216 -923.30273
-81.226242 134.44009 -924.8844
-64.307831 133.96335 -973.50281
-90.357903 96.5485 -936.81366
-91.233589 99.55291 -935.23871
-89.007225 98.051323 -934.69049
-86.485809 97.423271 -933.86664
-87.012413 99.388596 -932.14368
-87.796974 101.63332 -930.65833
-87.628098 103.79462 -929.04077
-85.118546 104.63047 -927.51959
-88.587067 106.82419 -927.93121
-90.213997 102.65292 -931.36804
-92.844261 104.73336 -931.46393
-93.778763 107.72453 -930.24719
-87.976608 109.40547 -926.73773
-85.915649 110.20095 -925.59662
-91.313316 101.31336 -933.61383
-84.883942 100.11536 -930.68005
-82.858093 101.08619 -929.27197
-82.097298 99.149124 -930.81799
-81.287788 97.253784 -932.7146
-79.583397 98.375916 -931.06537
-77.293861 99.567726 -929.18896
-80.991791 102.27167 -927.82953
-83.499191 96.453911 -934.04742
-83.42495 103.0724 -927.92792
-91.019859 107.30389 -928.92511
-24.394524 157.30707 -929.02783
109.27043 154.89563 -886.14258
109.52293 153.29103 -884.45813
108.37936 152.25348 -883.0506
108.71449 150.47534 -881.87122
110.92775 149.67264 -882.53418
112.52583 150.25996 -884.30182
111.33825 147.53716 -881.78851
106.15525 153.20441 -883.30792
111.15146 153.64836 -885.85883
112.53181 145.52953 -882.16437
107.20631 155.46379 -886.11676
106.39639 156.54317 -887.73425
106.74552 157.49507 -890.18988
104.84129 158.01492 -890.95654
102.7141 157.76094 -889.73224
102.73502 156.57237 -887.35553
100.7997 158.3566 -891.04059
98.5401 158.10078 -890.09186
100.93703 158.91512 -893.18567
98.322449 157.09241 -888.25745
96.262184 156.56645 -887.59106
100.12336 156.19345 -886.8421
93.973381 156.78221 -888.05286
96.710083 158.62247 -891.19672
96.164001 159.28848 -893.6134
94.579376 158.76041 -891.44733
98.672691 159.30037 -894.7088
92.720718 158.17599 -890.19464
93.960907 159.40498 -893.44971
91.8144 159.67674 -894.48407
-101.86701 122.63293 -948.31769
1.7342023 99.624817 -915.49982
-28.158598 71.996651 -997.98956
-77.119499 134.68848 -974.48431
-75.166557 134.05302 -974.7995
-73.418816 134.74258 -973.86035
20.344542 98.097321 -942.54095
22.948807 97.849907 -941.33105
22.95182 93.726929 -931.88965
25.31189 92.946983 -934.63232
-68.913116 146.57259 -960.58112
4.2966309 154.72211 -942.91968
21.104105 77.284012 -1065.0087
16.789295 76.414299 -1037.0494
17.88966 74.683388 -1035.2823
18.527407 73.435173 -1032.9969
16.787636 77.455818 -1034.9451
16.877892 78.674904 -1032.6093
16.978695 80.040138 -1030.024
17.213556 81.078377 -1027.1624
15.62103 79.647484 -1034.683
14.024228 81.848099 -1034.4371
17.816156 77.495773 -1030.7834
14.173388 80.439362 -1036.6649
18.570841 75.701683 -1028.9054
18.562843 76.575127 -1026.927
18.140512 78.803482 -1026.203
17.756416 80.857635 -1024.5997
18.146811 80.587181 -1022.1017
17.369602 82.903488 -1022.6746
16.165373 85.5839 -1022.4463
15.034779 87.968094 -1021.2004
18.473032 74.962433 -1031.1588
15.836933 82.127937 -1029.9056
15.952534 83.230843 -1027.7236
14.376318 82.778786 -1032.1595
18.685892 76.590599 -1024.7458
18.839514 75.310654 -1023.191
18.956999 73.187073 -1024.3617
19.007431 72.393425 -1026.9681
18.879969 71.423676 -1022.9601
18.729267 69.029327 -1023.726
14.13911 87.918236 -1023.4611
-44.498852 129.59906 -909.93066
-60.156506 91.919891 -955.98083
-44.975006 115.14231 -974.07208
-45.606842 117.43269 -974.47375
-43.523327 119.57062 -974.17566
-45.463642 121.13786 -974.43884
-41.227844 121.22649 -973.76709
-41.170898 118.64991 -974.0025
-39.089638 117.50348 -974.10632
-40.859592 115.55425 -973.91632
-36.863899 116.55492 -974.41815
-37.084679 119.08111 -974.09497
-71.966606 91.634399 -946.10809
31.189249 138.83022 -953.41785
33.140343 139.85783 -952.46619
34.84951 137.76486 -953.09998
32.772446 137.23119 -953.888
32.731243 135.08672 -954.92273
34.697166 133.81253 -954.96356
30.721508 134.77293 -955.64661
28.925322 136.08215 -955.56348
30.474674 132.67393 -956.64331
29.155989 137.89449 -954.36029
33.579372 131.81801 -956.0813
36.038872 132.05757 -955.36115
38.45327 131.7957 -954.69879
39.596237 129.56737 -955.16925
38.429024 127.92522 -956.24255
35.888718 128.067 -956.9306
41.533852 129.63176 -954.15234
43.496494 130.44475 -952.32251
35.178284 130.14737 -956.3844
37.686806 41.694592 -1040.0294
36.893105 39.089466 -1040.2286
38.882133 36.461739 -1040.2402
41.399647 36.442677 -1039.6526
43.154427 39.365578 -1039.5345
35.457355 36.59354 -1039.9731
32.143723 36.427151 -1038.8776
40.535355 41.922455 -1040.0038
11.970376 35.991318 -1063.1797
11.805359 33.838455 -1062.0559
9.5195169 32.832237 -1062.152
9.4390984 30.668802 -1061.0002
11.207194 29.850044 -1060.1124
13.335662 30.775782 -1060
15.701442 31.631283 -1059.7483
12.897326 28.501408 -1058.9233
14.950442 27.051962 -1057.5724
12.26151 26.365108 -1057.9474
11.181215 24.350466 -1057.0997
16.825119 29.927864 -1058.5349
14.073361 32.802979 -1060.8179
7.1263876 29.83297 -1061.0331
8.6388779 28.485058 -1059.9719
9.6594429 26.567822 -1058.6875
7.212224 26.627972 -1059.1975
-51.378628 152.40958 -941.50122
-10.987025 59.817974 -1079.8807
-41.746078 93.888466 -954.552
-43.980476 93.78656 -954.8504
-42.525723 94.47094 -956.61359
-43.282162 95.021782 -958.40973
-46.12011 93.616867 -955.15125
-46.728867 94.258965 -957.45038
-31.086361 67.51712 -1046.104
8.4100761 79.010849 -1085.8855
9.1057873 76.420242 -1086.5687
7.8503957 74.251862 -1086.3257
11.183332 78.016396 -1085.9006
5.8385763 74.782135 -1086.9075
4.2529993 77.490982 -1087.4026
12.665588 76.280602 -1085.5289
14.015744 74.369675 -1084.3794
11.366033 73.229652 -1084.3721
44.228027 27.152651 -1037.2704
43.002869 25.157351 -1037.6132
40.543972 25.477451 -1038.005
39.668419 28.205647 -1038.4022
38.341274 24.940172 -1038.4712
35.751106 24.829767 -1038.6866
37.353352 22.49807 -1038.9059
34.911655 27.492987 -1038.7971
32.331596 28.05068 -1038.6614
31.808773 30.75704 -1038.7166
36.58905 29.066048 -1038.9979
36.181824 31.231644 -1039.4353
33.721054 32.069351 -1039.2778
33.854954 34.552261 -1039.4191
-70.344109 126.93074 -978.13251
-68.529266 128.8186 -977.31598
-69.425659 130.81458 -976.61841
6.3040314 89.779602 -959.23242
80.060875 123.89992 -923.49127
67.532265 61.915947 -1072.6606
70.265816 62.168072 -1071.0306
70.901596 63.091068 -1068.1804
-26.825504 24.02109 -1053.9337
-31.818207 58.594296 -1033.0591
-82.022263 116.0377 -980.55682
42.799976 111.40173 -892.88171
-80.729691 138.7856 -971.54535
-83.060791 138.61211 -972.17346
-85.019043 139.85503 -971.11877
-79.469986 103.82064 -926.3822
-79.98645 106.10428 -925.14349
-82.694138 107.23663 -925.35223
-2.5292077 106.29608 -1003.329
-1.3756391 107.32308 -1001.4734
1.0258141 107.02206 -1001.6104
3.3419981 106.54829 -1001.8275
-3.4254346 107.8427 -1000.7037
5.3995948 105.55009 -1002.7165
0.60333657 108.11594 -999.83313
2.3345301 108.77492 -998.32031
3.4748521 109.52747 -996.64862
-72.819534 139.85323 -969.56818
42.017944 60.026817 -1073.3831
18.930775 123.4309 -887.61249
16.488625 123.45464 -888.35675
17.686962 125.66228 -887.81812
18.613703 127.55769 -887.367
20.662836 127.59276 -886.50806
26.960348 47.938343 -1038.0688
28.7668 45.53418 -1038.1072
32.797039 103.53339 -959.17499
32.240883 102.15716 -960.8891
35.037411 77.986671 -1065.7522
34.060833 79.063248 -1068.0665
33.762413 80.040268 -1070.5042
36.377022 78.822594 -1067.3773
31.92074 78.922783 -1067.8715
9.2995262 134.07024 -961.0647
11.230847 135.56114 -960.18079
11.570987 133.39006 -961.44879
12.446664 130.76572 -962.52557
7.6010385 132.48898 -962.04712
7.9844179 130.55049 -963.23065
5.6003132 130.25751 -963.78723
10.045506 129.09232 -963.67438
10.535728 126.27994 -965.45978
5.1454973 128.18092 -965.58661
7.0817547 126.6874 -966.44409
6.0754466 125.34072 -968.23657
7.299417 123.60869 -969.84387
9.6511221 123.19675 -969.11023
11.949907 122.84716 -968.09558
9.0278692 121.8371 -971.38696
10.989402 120.18348 -972.46661
13.288077 119.81794 -971.086
15.021008 118.05949 -972.02295
17.152943 117.00085 -970.82867
18.771843 114.90508 -971.53442
14.787393 116.74266 -974.53485
12.758795 117.00487 -976.32019
16.437778 114.97151 -975.69012
16.808687 113.65147 -977.99597
18.465523 114.06258 -974.21838
12.168802 116.01521 -978.87579
9.9066563 116.45258 -980.21826
7.3147793 117.96902 -979.29053
20.289078 112.29726 -974.74921
22.448727 110.95956 -974.40601
25.545353 109.95139 -974.44244
20.819508 110.95501 -977.01825
28.577299 110.33627 -972.58325
26.294882 108.56918 -976.59839
28.974648 107.20937 -977.92346
10.876252 118.55734 -975.30414
8.7670279 118.72358 -976.76953
7.2018142 120.06465 -975.47888
5.2929139 121.29664 -974.45227
7.6507096 121.07214 -973.47559
6.6665888 119.14148 -977.51685
4.574204 119.06787 -978.77686
2.6465194 120.06166 -977.69794
5.2302809 123.76452 -970.62225
4.5376906 122.69949 -972.51721
13.50379 136.63113 -959.38812
15.85151 135.78012 -959.9231
16.22312 133.49928 -961.25909
18.653561 131.96098 -961.41931
20.672724 133.07951 -960.68884
21.884026 130.85034 -960.91217
18.386238 129.54494 -961.92419
18.94072 126.66229 -962.22015
16.512125 128.29776 -962.52087
14.49671 127.02015 -963.49268
21.282003 126.36118 -961.37836
12.601453 125.9588 -964.80408
