# .PCD v0.7 - Point Cloud Data file format
VERSION 0.7
FIELDS x y z
SIZE 4 4 4
TYPE F F F
COUNT 1 1 1
WIDTH 1554
HEIGHT 1
VIEWPOINT 0 0 0 1 0 0 0
POINTS 1554
DATA ascii
21.995867 118.75548 -989.0722
21.074533 116.17149 -993.99646
15.400491 113.7198 -994.52173
13.800972 108.08719 -999.90509
14.065798 117.66289 -985.7962
19.760757 106.69585 -1003.1691
19.191286 100.40796 -1007.9182
25.341709 98.808289 -1011.4348
13.434081 97.750992 -1008.7495
6.1832628 96.523651 -1009.4182
-0.45899254 101.218 -1005.0179
-7.2868605 97.827324 -1010.2468
0.12050586 93.201019 -1012.5869
24.41674 93.891663 -1015.2896
27.932819 92.86129 -1019.8361
22.53393 88.469414 -1019.929
21.246105 84.067924 -1023.1598
0.77391911 88.172958 -1017.2334
-5.842248 84.84771 -1021.5375
-12.97842 86.892639 -1023.6448
-18.041931 88.54081 -1028.8593
-20.445272 95.831154 -1029.0398
24.204393 110.00412 -1002.8568
40.903709 193.30486 -981.21008
43.476517 191.04077 -987.03339
23.785236 192.47787 -974.13
47.124916 191.71512 -955.20544
45.381325 185.81667 -947.94208
12.773177 124.36242 -969.25012
7.5735569 124.89594 -968.10425
5.5174203 127.8224 -963.96753
1.4127216 130.7469 -960.71228
-4.2364354 132.86322 -959.16986
-11.963758 137.09016 -958.13818
3.1919587 123.65427 -969.25427
-3.1475601 129.09286 -962.29272
-5.3989029 125.17244 -966.59326
-11.594018 125.45732 -966.20807
-17.496338 130.03963 -962.28644
-16.068047 121.18578 -970.94653
-13.491837 144.1837 -955.90204
-19.957275 125.01967 -966.6991
-6.148828 113.74416 -988.9093
-9.0048094 111.74634 -992.92249
-5.8050909 108.59281 -998.05377
-8.3022156 114.85224 -985.02631
-12.497808 114.46561 -983.78174
-15.285233 112.86122 -987.24146
-13.747582 111.70886 -991.63757
-15.6413 115.16154 -980.74866
-19.936487 115.20472 -979.96393
-24.595037 115.99661 -977.22693
-14.2615 117.20471 -976.75073
-9.4823112 118.40784 -975.55365
-7.1975393 116.34187 -981.50671
-3.5071068 117.2402 -980.62067
-5.0988536 118.30342 -976.97192
-2.7758961 120.19356 -973.80469
-22.097013 114.00312 -983.38452
-25.131529 114.7589 -980.51172
-30.840727 113.97155 -981.37952
-31.815109 112.36785 -986.99524
-38.855003 111.75543 -985.83832
-47.351894 110.4875 -983.77362
-28.426798 110.05028 -991.62952
-23.361467 112.59153 -987.33997
-19.294556 112.33324 -987.88129
-17.9767 111.18536 -991.56903
-20.385563 110.11649 -995.11017
-18.360413 108.23784 -1001.5549
-23.732063 108.22096 -1005.8511
-31.642868 108.55577 -1005.6595
-26.697559 112.11684 -988.24139
-35.620003 114.63036 -978.09515
-39.540974 118.26694 -973.64117
-46.376564 117.0555 -975.23199
-27.889114 109.95419 -1011.8815
-28.794157 115.24195 -977.98627
-12.085621 107.82723 -1000.3857
-40.912117 108.0042 -991.34692
-43.935863 105.77792 -997.78546
-34.476162 120.20107 -971.61487
-28.946564 120.21535 -971.70154
-5.2067609 121.93856 -970.59357
-6.4693084 119.97201 -973.39014
0.058034386 121.00097 -973.03894
-3.4072304 124.02168 -967.99866
-0.57864165 124.18028 -968.01733
2.3065567 125.32088 -966.8139
-2.6541641 125.6823 -966.07227
-4.1532397 127.34124 -964.19037
-8.2375488 127.63885 -963.93164
-6.023572 128.63637 -962.8017
-6.4884877 131.84787 -960.05621
-7.9758663 135.05621 -958.31244
-3.9653969 137.91556 -956.34314
-10.421558 133.09502 -959.65698
-15.647123 133.92917 -959.98413
-21.065252 133.72166 -961.03973
-13.341285 130.79897 -961.35748
-8.6115561 139.27371 -956.6911
-25.389967 137.76022 -960.96069
-24.74054 144.87842 -957.83051
-14.028724 127.90611 -963.70648
-15.931337 125.39526 -966.1817
-13.421116 123.32669 -968.54541
-11.955976 120.86207 -971.58063
-13.898963 118.7987 -974.21698
-18.273478 118.95283 -973.53259
-22.355114 118.26991 -974.13025
-19.505739 121.41475 -970.54022
-9.9024162 142.35689 -955.90814
-10.186698 147.75041 -953.25781
-13.226252 152.53148 -952.79462
-12.786885 140.28059 -957.3335
-16.973761 141.93431 -957.63434
-15.747057 137.67302 -958.74292
-17.484831 145.76517 -955.89667
-14.563951 148.19484 -954.02185
-21.438892 147.32784 -956.09027
-26.479397 150.34056 -957.20331
-22.440897 151.98932 -955.94458
-18.560566 154.75899 -955.39209
-30.883959 153.41922 -959.43628
-36.013405 150.78398 -961.87531
-35.859577 144.44566 -960.98993
-20.945553 158.28891 -958.38062
-24.637775 160.64543 -960.617
-18.503126 162.15028 -959.27313
-12.69722 166.63118 -957.14044
-29.832024 159.26811 -961.24438
-31.989494 162.45818 -964.68848
-30.006466 166.91843 -966.24872
-22.563889 168.68909 -965.85547
-35.308044 158.87753 -967.02118
-37.785408 159.33963 -971.44135
-37.381493 154.50119 -965.87201
-41.906662 151.43723 -966.10791
-20.517595 143.39398 -957.67914
-23.432747 141.1252 -959.31671
-28.098953 141.78624 -959.98505
-36.311596 163.6205 -973.76202
-33.589462 168.12296 -972.15338
-22.851524 164.36938 -962.7428
-6.1922479 123.37635 -968.67188
-8.3717947 125.05981 -966.68219
-27.469198 133.75458 -962.56104
-30.062342 129.21736 -964.84277
-26.43124 125.43338 -966.78729
-17.665234 122.76424 -969.06201
-21.919119 123.54408 -968.25995
-23.04187 125.49693 -966.4776
-20.709757 128.01108 -964.14423
-25.066198 123.08053 -968.77765
-8.3214502 145.00287 -954.34235
-3.3514855 144.93526 -953.48962
-6.5560045 148.06482 -952.3905
-18.223213 171.51517 -965.09137
-20.914213 172.76201 -969.97723
36.403259 190.89944 -959.77985
29.983206 189.28055 -959.06329
-31.118603 108.57736 -995.51825
-37.06636 107.32922 -995.84802
24.598305 187.59607 -957.1861
20.571726 184.68425 -954.64368
14.998138 183.86551 -957.05902
9.6224699 184.13724 -960.91901
4.0970831 179.78889 -959.96112
25.141344 183.23943 -951.42029
25.025665 177.33028 -947.16168
31.578575 181.84108 -949.73822
22.050083 172.59753 -946.08209
25.311098 167.46263 -943.21509
33.275925 177.17729 -946.24585
39.147633 176.08963 -943.69464
34.806213 171.12617 -943.06061
35.862286 185.4369 -951.60693
14.881054 187.54756 -963.72046
4.9441471 176.03807 -955.19373
14.81923 128.57126 -962.6004
10.789049 130.23433 -961.3244
6.2415171 130.81151 -960.69592
18.517956 90.494476 -1016.1175
13.224188 92.24276 -1013.428
11.960259 88.082535 -1017.0294
10.225133 83.002037 -1021.6172
6.4263854 87.178658 -1017.8153
6.8609166 79.815086 -1024.5803
0.17891122 79.551437 -1025.5139
57.4146 152.69107 -997.80377
61.456902 153.64024 -995.70667
63.574017 157.64241 -996.35675
67.049133 156.54129 -993.65948
68.374451 153.09674 -990.93573
71.345642 151.616 -987.97467
65.634514 149.19936 -990.43652
75.05677 154.90013 -987.3501
78.626144 154.06599 -983.77081
82.050926 158.67737 -983.26691
86.618797 157.88281 -977.23401
92.362366 157.66386 -972.43091
63.366074 145.67284 -989.08588
77.737892 150.18045 -980.58588
80.00312 149.79715 -976.06091
75.73407 146.73799 -976.50977
82.475266 150.71071 -971.81152
80.616928 148.13403 -966.31488
84.763771 151.35965 -967.13202
74.395157 144.46774 -972.14093
73.350792 143.0071 -966.56586
70.626976 142.35458 -961.52002
72.167191 144.68074 -956.22095
66.63179 142.12988 -957.41718
60.119213 142.4787 -951.71002
60.22929 138.84406 -959.90997
73.281021 148.55424 -950.56189
76.350204 154.06874 -947.03925
84.612595 154.88217 -948.0321
89.132248 153.58339 -966.91412
88.94175 152.59831 -962.28693
92.828041 155.95982 -968.36761
96.980652 157.49513 -965.35229
102.50208 160.33212 -964.177
96.5532 155.97357 -960.98737
100.96172 158.12413 -960.14142
103.38578 159.07652 -954.98395
99.691422 158.74796 -951.36932
94.244247 156.15581 -952.27783
99.375526 161.00053 -945.54749
103.37352 163.82507 -943.53455
103.03593 169.22635 -939.06061
110.31152 174.88295 -937.04901
94.875061 171.41985 -936.5675
107.5793 161.67107 -953.13287
109.30772 163.88222 -948.35199
111.86226 164.0507 -956.39557
116.87245 167.34991 -956.02692
113.40733 166.81345 -946.02747
118.53674 168.71771 -949.01514
122.10959 172.90196 -948.37933
113.67275 170.39828 -941.16809
117.56521 176.52806 -939.19537
119.68826 170.95036 -959.99347
116.02048 172.24524 -965.86346
119.35066 179.12093 -966.74756
120.03251 182.60356 -942.23651
115.61741 192.7318 -942.84924
123.29596 189.65839 -947.10455
61.796528 148.13185 -992.25098
70.169647 158.96536 -992.74432
74.238586 159.59593 -990.3689
70.287376 163.32541 -994.13605
71.048134 167.77776 -994.05841
70.271179 172.539 -993.79755
74.897751 169.54218 -992.05145
78.68409 172.66129 -989.34369
77.894646 165.88058 -989.92902
80.958267 163.09833 -986.57526
85.862488 165.4619 -983.10938
86.812584 173.37376 -984.14685
67.112724 164.49532 -995.99518
63.780399 162.01234 -997.46082
63.733032 167.31261 -997.43146
60.162994 160.59511 -998.83734
57.018166 163.61684 -1000.2924
52.942951 166.23524 -1001.89
46.925827 169.36768 -1004.1161
57.316505 168.35538 -999.90741
49.500664 162.91963 -1004.5979
44.858871 164.89348 -1006.3746
39.671089 162.25165 -1008.5305
34.189186 163.45828 -1008.9485
29.161304 160.92427 -1009.9427
30.802214 156.0829 -1011.5743
36.326847 152.12321 -1011.6396
41.758053 155.02208 -1009.5125
64.126579 171.51909 -996.60547
63.176064 175.23091 -996.28778
58.766872 177.73473 -997.07062
63.145103 179.03008 -995.07874
67.057671 180.23705 -993.01471
72.368591 179.51532 -991.08051
64.439369 182.80058 -992.52563
60.661312 185.1394 -991.71667
65.008263 186.1042 -989.71509
36.445175 146.32637 -1011.8949
56.641911 158.92143 -1000.0994
58.162144 187.2552 -990.2486
58.704941 189.8651 -987.50116
54.450954 188.60938 -989.81635
51.581631 190.37355 -988.29974
51.582874 192.85764 -984.47668
47.79076 191.45596 -986.69263
51.721283 187.45683 -991.51599
51.632618 183.76422 -994.92981
47.60313 180.14021 -998.38257
47.929966 186.01941 -993.53693
41.997509 181.08876 -999.41498
54.663269 175.62535 -999.00378
50.018177 174.99974 -1000.5775
77.005852 178.18002 -988.98755
57.728798 183.69778 -993.72461
34.436813 169.19081 -1007.0895
29.616772 172.60175 -1006.5736
38.01852 172.44334 -1005.6494
39.451767 177.50258 -1002.881
34.285793 181.30096 -1001.3618
124.07813 177.00546 -953.41132
124.46346 182.5152 -953.5462
122.88175 187.90031 -958.30652
120.42289 191.42188 -962.75745
113.48348 192.70898 -967.20782
83.900513 153.59927 -975.17432
50.354488 157.74153 -1005.1668
111.59513 169.86426 -967.78088
107.25169 172.64226 -973.04907
121.27345 176.73274 -944.04059
78.662491 182.06558 -985.72833
83.751961 182.39682 -983.50549
89.420219 182.89339 -981.89557
91.300781 187.79237 -978.9726
95.182167 182.80687 -979.83301
86.633995 178.28427 -983.78534
98.076141 178.68732 -979.06177
95.777016 171.51527 -980.05646
74.329414 182.85283 -988.13586
80.150826 185.67242 -982.70648
102.16833 181.8085 -976.71478
104.35807 186.89165 -974.85657
107.72729 191.28687 -970.92627
100.89439 190.74731 -973.72552
106.79683 180.32779 -974.70276
111.52639 180.06386 -972.16547
113.93147 184.23003 -970.48743
96.031853 190.59103 -975.31635
95.13797 194.30981 -971.9259
96.092102 197.38576 -967.42944
100.69611 197.90555 -965.10333
105.43743 195.4502 -967.37726
95.4076 198.55431 -962.56714
94.10585 199.73926 -955.36993
89.371925 199.10417 -959.99945
104.64983 198.71802 -962.1394
105.14893 200.09917 -954.83722
90.650932 196.18735 -970.69348
86.064461 194.7462 -973.46124
84.099335 191.14078 -977.52936
103.46859 198.77766 -947.55865
108.73981 196.62056 -942.89191
100.00778 195.28644 -942.17023
92.576508 194.91904 -943.52625
98.097061 190.65889 -938.83844
95.252548 183.39986 -935.71375
101.03122 186.78139 -936.0354
108.23101 186.9332 -935.82458
86.257393 192.80406 -942.92059
83.300911 186.35912 -939.41455
75.539886 183.59061 -939.7569
72.832817 174.23813 -938.2962
70.544472 188.21907 -944.67285
62.438755 187.6543 -946.03058
56.533829 181.23566 -941.60254
64.022446 171.20915 -938.72699
94.443161 161.19374 -943.16443
88.057465 160.9541 -942.30817
93.018471 165.3573 -939.96387
123.45171 175.30171 -958.70984
120.46369 174.61353 -963.30103
86.554161 197.37946 -967.62531
84.762306 198.28464 -963.17334
80.139511 198.06653 -962.612
77.038048 197.61038 -958.96271
116.62599 196.94327 -959.89026
115.71858 198.20152 -953.36969
119.35361 193.7088 -949.35498
82.684998 163.29225 -940.0777
81.069427 170.6449 -937.18756
76.702255 163.31792 -940.12866
72.27684 159.52458 -942.03912
87.821442 174.09146 -936.36548
88.446892 181.69637 -936.19208
74.679718 168.88628 -938.38629
71.097038 148.49289 -985.45044
73.814484 147.7921 -981.61359
86.80706 198.5806 -954.72217
91.354218 198.08344 -950.79163
82.014748 196.93797 -952.97528
77.256599 194.29707 -948.71259
69.518105 170.14278 -938.97516
67.735237 175.09151 -939.44232
61.341988 177.58673 -939.8266
71.058586 179.29913 -939.38556
75.885872 178.62843 -937.86523
65.441986 166.25363 -938.83502
59.737293 167.08638 -938.31989
66.653885 160.89084 -939.88263
65.677734 156.02232 -941.48743
64.666931 150.90829 -944.65698
60.451347 154.02797 -941.95105
62.16523 146.31152 -948.02759
56.773148 157.12402 -940.21021
57.277401 162.08691 -938.96149
53.353016 165.80737 -938.96539
47.266842 169.51874 -939.72632
48.094719 164.08769 -939.68494
55.644127 152.68745 -942.38513
53.668671 148.5452 -944.96942
48.61916 147.80316 -945.01416
56.844887 145.67371 -947.58887
46.447414 143.86018 -947.97748
43.212875 166.07732 -940.24597
54.869205 141.96161 -950.66956
50.187031 141.17639 -950.80328
71.606529 186.50075 -986.90387
71.950287 189.83064 -982.8313
64.508308 188.82239 -987.17957
65.173897 191.50056 -983.901
68.47731 186.62044 -988.21631
71.466675 183.59026 -989.32684
58.220718 180.57101 -995.84174
57.026337 192.33508 -984.83191
58.480366 194.1239 -981.2536
57.767002 195.28465 -977.99585
54.112469 195.4653 -976.49915
51.378155 194.64871 -979.5144
51.955521 195.81792 -973.67542
53.411964 196.58083 -969.07507
49.447109 195.97787 -965.60706
48.249603 195.7632 -972.16815
44.460701 195.3513 -972.40894
41.042717 194.75632 -969.10742
47.69215 194.50571 -979.06348
43.863541 193.94749 -980.04724
45.529743 194.90408 -976.21295
43.960289 192.57613 -984.00623
41.165501 191.89645 -985.20978
36.484226 192.46063 -983.2923
29.774611 191.85786 -984.84607
39.661064 189.91669 -989.26337
35.735394 188.11827 -993.21814
43.500267 188.46684 -991.17517
29.773026 188.58687 -992.84625
58.870075 196.08961 -974.75146
63.03968 196.33673 -973.36212
58.812279 196.7827 -970.8844
58.365917 197.12637 -966.75098
63.285038 196.66328 -963.78845
58.786232 196.68381 -962.27972
62.04739 194.1192 -980.5531
64.626549 194.63788 -978.703
68.226654 194.42033 -977.07001
71.314575 194.2695 -974.80017
70.774284 195.39139 -971.04236
72.379822 196.07356 -967.56818
75.834862 196.60818 -967.15149
79.169357 195.85078 -970.71234
71.743805 196.47368 -963.5459
66.87471 196.1602 -969.75897
68.00563 195.90833 -962.00714
65.403229 195.45738 -959.46759
63.541527 193.47311 -954.02692
72.927025 196.73383 -960.09332
72.509109 195.72691 -955.86145
73.569771 194.4675 -951.5473
71.628128 191.83038 -947.88165
66.836174 190.36551 -948.61884
67.751663 194.51962 -955.92102
70.499962 192.51678 -979.53552
58.123299 193.80649 -954.13568
60.69323 191.19016 -949.87054
64.683693 196.68387 -966.31586
75.629593 194.2123 -973.71747
78.006264 192.55121 -976.41595
76.15271 190.70079 -979.10229
76.352013 188.10936 -982.09497
80.639847 191.77432 -977.2373
56.815365 195.4174 -958.5592
53.071709 195.41743 -960.78674
49.382683 193.87038 -958.97583
40.098618 187.31593 -993.35175
37.317181 184.74939 -997.27612
94.249207 154.72484 -956.67206
25.127956 164.01645 -1010.1919
86.882256 151.98866 -957.80249
85.163681 152.662 -953.04077
82.160484 150.52399 -956.86542
77.479477 147.55545 -957.02283
80.164108 148.29115 -961.14362
89.367035 155.10896 -950.37598
110.22722 164.35016 -961.55969
77.594322 174.14597 -937.37689
107.8732 199.56401 -958.22528
112.45918 198.83766 -958.71924
110.5974 199.85928 -954.42371
28.694618 177.61493 -1004.7812
70.955826 183.81804 -941.43793
66.696884 185.60568 -944.10516
62.30986 183.64507 -943.01129
58.017162 185.22305 -943.98383
51.504921 183.20638 -944.23285
46.70507 192.89139 -958.11487
41.676056 192.57556 -960.1037
43.731083 191.66197 -956.86945
44.01907 189.82979 -953.13922
41.467155 186.81468 -950.27899
47.862869 189.33873 -950.64301
51.881451 191.88066 -952.84058
41.898529 183.12155 -947.0293
50.27475 186.92488 -947.32782
40.058197 191.18169 -957.99432
36.394611 188.93124 -956.23492
46.114922 182.46263 -945.34424
43.099556 178.90405 -943.96722
45.62978 174.63881 -941.09546
50.79607 175.07391 -940.07404
56.149513 175.82707 -939.37799
33.401096 189.18385 -958.1402
33.396057 187.18993 -955.06866
32.908772 190.83432 -961.4129
36.515129 192.42963 -963.75916
35.769276 193.10797 -967.41217
29.080095 191.077 -962.87952
28.312885 192.25229 -966.81616
25.830214 189.88205 -961.02362
24.68301 192.25586 -969.58234
21.659534 189.34546 -962.13733
19.901768 190.35307 -966.78809
14.79434 188.98392 -967.88348
13.184971 189.65564 -973.50452
17.850941 188.36986 -962.96783
32.514126 193.05142 -969.69989
32.375031 193.47281 -974.52637
32.263996 184.44966 -951.95154
29.169725 183.64328 -951.49219
27.368992 181.2878 -949.55878
29.878458 178.74457 -947.73633
28.883335 175.81197 -945.8924
32.053192 173.50124 -944.38428
30.699089 169.8943 -943.09607
33.60902 166.89693 -942.258
29.466671 164.23811 -941.9812
37.954971 167.08701 -941.48145
40.023403 162.14207 -940.96375
35.551037 174.77248 -944.29913
37.844719 172.32999 -942.56317
41.253933 173.33748 -941.8208
36.985676 178.36125 -945.74207
39.688129 179.61598 -945.48285
34.282715 179.35548 -947.35919
34.632168 182.44179 -949.38599
38.082016 183.59547 -948.72485
26.231413 175.00482 -945.64514
25.120617 172.07269 -944.58826
23.03569 175.78474 -946.84253
18.173 174.97089 -948.51575
22.148184 178.04828 -948.33832
26.919506 169.53439 -943.30707
22.782179 170.1562 -945.07111
21.676661 165.668 -944.85559
18.203663 165.44528 -947.1933
24.539042 163.14319 -942.79547
22.681049 158.69678 -942.92163
17.456547 157.68048 -944.26721
20.436258 170.23564 -946.70288
17.123259 152.66371 -944.72723
27.619293 166.47849 -942.4754
14.088745 166.26419 -947.80627
12.79623 170.20639 -948.80811
10.134406 165.29601 -947.43903
7.7363858 160.73082 -946.84161
5.8263459 165.49977 -948.74982
1.7832737 166.10143 -951.91919
-1.9874007 161.5815 -951.87439
-0.95414257 167.05051 -955.78235
10.383522 173.00513 -950.26624
8.8420267 176.1496 -952.75604
6.0251889 171.75787 -951.46124
-0.036467437 171.53854 -957.87897
2.0999162 175.97192 -958.88531
1.1380422 177.77692 -962.92371
-2.5891931 176.5619 -965.85089
-1.8075407 179.30643 -969.71393
-6.0507102 180.04544 -973.32501
-6.0633626 174.04263 -963.23071
-4.6432166 170.97356 -960.30957
-9.4652824 170.04526 -959.15082
-14.224624 170.29893 -959.62909
-1.5820364 182.29608 -973.95038
-10.133195 176.50391 -965.1958
-11.94278 178.80124 -969.43048
-14.57496 175.06755 -964.59619
16.992901 161.43288 -945.72601
30.853004 166.61734 -942.33813
32.306534 164.48624 -941.92798
32.634663 159.64905 -941.60107
30.641724 154.84129 -942.12561
33.301167 150.50386 -943.22046
31.252548 162.02008 -941.69336
28.562258 161.70447 -941.80457
26.941957 163.73796 -942.21393
26.017841 161.18164 -942.18854
25.173195 158.46005 -942.28699
26.580008 155.94452 -942.30414
24.002491 156.06763 -942.6795
24.607773 153.41087 -942.96716
21.870716 150.45361 -944.18091
23.27776 146.44446 -945.40845
27.399624 144.28224 -945.85889
28.937899 152.07724 -942.82959
20.451822 144.11115 -947.51385
16.736609 145.60074 -948.53583
13.253539 144.23326 -950.83636
15.230639 149.07516 -947.06964
11.824202 151.2032 -947.06287
8.4270887 149.52287 -949.01923
8.183589 152.81084 -947.31116
13.994168 140.56148 -952.54175
20.652588 140.37292 -949.71002
24.171329 138.57509 -949.71912
27.837713 140.27246 -948.18811
9.2692013 145.91519 -950.89752
5.6612906 144.8981 -951.92426
4.4493833 141.60364 -953.22461
7.6479468 137.77159 -954.72308
1.9635824 138.45296 -954.93622
1.8138677 145.85992 -952.1734
1.3269624 149.54984 -950.26874
4.0528903 151.65807 -948.67706
-1.2273948 152.18645 -949.47113
-4.9083447 153.98845 -950.12848
-4.6714196 158.28363 -951.172
-8.7166996 156.90918 -952.08008
-11.836573 159.9814 -954.60321
1.5481012 154.33661 -948.40265
1.4009866 158.45926 -948.67694
16.306644 138.0954 -953.20709
16.775013 134.36253 -955.73236
21.691816 131.1339 -957.12805
12.537145 134.44901 -957.02515
-5.305624 150.27209 -951.05371
8.1132078 156.5778 -946.48193
11.903586 158.54543 -945.64062
29.981417 159.59464 -941.64215
31.413038 157.31352 -941.76556
34.318813 157.46851 -941.76666
38.339424 158.73827 -941.52759
40.966282 154.36469 -942.13409
35.708481 159.92183 -941.61115
45.534992 152.9902 -942.16132
48.920227 156.64168 -940.66534
33.011227 154.92906 -942.07007
31.630096 152.49509 -942.62372
30.377916 150.10587 -943.33875
34.527416 152.8129 -942.62872
37.755802 150.2186 -943.60687
37.80862 152.76617 -942.74829
39.287399 145.85844 -945.7088
32.428616 148.15228 -944.01038
30.962818 145.54802 -945.117
35.216629 148.1553 -944.14148
32.18737 142.45607 -946.79333
35.960224 140.38844 -948.57629
35.695477 142.85231 -946.83936
39.199612 138.44313 -950.92773
43.264954 139.68071 -951.08453
40.615757 151.92723 -942.99622
43.187359 152.0141 -942.76984
45.915985 150.58688 -943.2569
44.043266 147.31013 -945.19727
43.417801 154.51784 -941.81842
45.522701 155.81465 -941.18262
46.699863 158.25496 -940.4928
45.347672 160.79567 -940.27777
48.974693 159.56255 -940.06396
47.769508 154.50635 -941.39984
50.380047 154.44774 -941.28564
52.054577 157.01955 -940.35004
52.964413 153.10194 -941.95197
53.470009 150.92844 -943.29889
51.178665 149.48129 -944.04187
51.050468 147.16249 -945.67371
55.124432 155.11734 -941.01483
57.817978 154.78485 -941.31482
60.016975 156.51875 -940.53687
48.819534 145.43851 -946.81842
62.736904 155.86623 -941.07568
62.94701 153.42033 -942.58972
67.034676 153.494 -943.27997
68.32608 150.58496 -945.79944
72.814697 151.78687 -947.14111
65.466621 147.92909 -947.32715
69.654106 147.84016 -949.01147
53.832455 146.33525 -946.65143
64.288017 158.22534 -940.23694
63.798061 161.04222 -939.28754
61.049171 162.09546 -938.87256
63.292744 164.03398 -938.74963
49.110134 143.40327 -948.59222
46.176178 141.39349 -950.14752
67.158974 158.34703 -940.8269
69.556534 160.33485 -940.91937
68.418617 155.84662 -942.36115
71.474937 156.46579 -943.25769
76.137436 157.41273 -944.04401
71.979721 162.14833 -940.76312
75.129196 161.03008 -941.54828
48.001926 152.11333 -942.39899
55.956318 150.19806 -944.07629
56.534214 147.86046 -945.84253
59.445702 147.5298 -946.48334
61.485168 149.68832 -945.12238
54.247192 144.28813 -948.3598
73.760582 164.73891 -939.72198
72.768852 154.65637 -944.96814
58.113609 152.30695 -942.84277
60.554646 151.74092 -943.52557
42.15345 156.73737 -941.39209
41.136814 159.44966 -941.08197
39.841259 157.02797 -941.62134
62.583698 166.93323 -938.46271
60.490833 169.79216 -938.32782
60.745708 174.16292 -938.83875
57.689117 172.52184 -938.58032
72.088287 167.1707 -939.12048
76.431267 166.44121 -938.78674
80.134163 165.01526 -939.02606
83.478767 167.11078 -937.89142
78.298569 168.95526 -937.83673
86.225395 170.4697 -936.68634
91.186493 169.36003 -937.08325
78.152359 161.25232 -941.30035
81.023308 161.42749 -941.17639
84.513649 159.28528 -943.05194
84.040215 161.59091 -941.35638
85.967606 163.65349 -940.17438
90.537354 163.77844 -940.69586
58.706638 158.57812 -939.71716
55.956734 159.78438 -939.4704
54.605251 162.10089 -939.18671
52.473 163.33685 -939.26654
50.562061 165.7338 -939.30847
52.184891 168.41963 -938.98828
51.404495 171.98737 -939.28625
55.733265 164.40564 -938.79968
55.164204 167.84743 -938.61902
48.441673 173.30257 -940.06067
48.139896 176.3172 -941.14508
50.782177 178.19014 -941.38464
58.645252 164.14317 -938.60602
53.299629 176.95468 -940.20599
53.608829 179.89688 -941.54053
53.53133 174.00113 -939.30029
45.427406 177.38741 -942.40045
47.872913 166.5038 -939.58527
50.251812 180.73665 -943
48.887833 182.82158 -944.76593
45.394627 167.82849 -939.94098
44.580883 170.46176 -940.30444
42.817963 168.63525 -940.43005
40.699253 166.8871 -940.77478
45.694462 165.37718 -939.88507
43.708172 163.45935 -940.24701
41.401447 164.20622 -940.60529
39.004845 164.66249 -941.12762
37.152447 162.61667 -941.43469
52.016502 142.78172 -949.41724
52.493446 140.89035 -951.37811
50.641548 138.7914 -953.71729
48.842155 136.69714 -956.55786
44.146477 135.4239 -956.10425
55.143703 140.2287 -952.90826
58.208298 139.59239 -955.75195
55.756931 137.36568 -959.48682
57.534077 141.78203 -951.63342
58.495007 143.51881 -949.86896
62.421597 141.129 -955.80206
51.870094 137.02467 -957.44128
53.471073 136.24335 -960.71967
50.639187 134.22182 -963.68445
46.87751 133.16643 -961.89154
44.753563 131.15628 -964.09058
39.934151 130.22466 -962.79559
61.045231 144.38445 -949.66602
64.189224 143.59039 -952.05249
64.068779 175.09903 -939.42151
66.101456 178.51756 -940.35931
69.59259 167.34456 -939.23938
67.837791 165.24649 -939.40332
68.955742 162.72861 -940.03412
67.264641 168.5799 -939.03241
66.844246 171.31053 -939.06744
65.833176 163.39479 -939.25116
72.322281 169.8235 -938.62268
74.301605 171.72531 -938.09821
71.31105 172.24553 -938.64911
70.381035 175.17145 -938.96466
69.025192 177.50246 -939.56592
72.212692 177.09769 -938.63318
68.322052 179.79614 -940.40442
73.514458 179.34727 -938.63971
72.838387 182.01738 -939.80133
75.238503 181.24165 -938.74475
79.70388 182.3913 -937.89911
84.014923 182.63354 -937.01575
74.553787 176.34244 -937.96619
79.824333 185.87749 -939.92133
75.947563 187.25304 -942.00421
74.551453 190.45872 -944.89996
73.279167 184.55937 -941.03595
87.299469 185.48721 -937.6911
91.080414 184.82458 -936.58789
94.485558 187.51985 -937.39459
92.532051 180.64839 -935.80835
96.791069 179.22658 -935.6424
99.016037 174.51671 -935.91333
104.47518 174.21115 -936.39264
93.242935 176.02995 -936.06287
107.32694 178.63861 -935.56445
89.81855 177.92694 -936.18115
85.673607 178.51244 -936.36639
83.496613 174.65317 -936.67706
77.698189 180.30661 -937.74261
78.892555 177.73578 -937.11346
63.542431 144.99356 -949.80164
38.377781 128.4532 -966.45776
28.910629 156.98961 -941.88293
22.773951 180.95041 -950.04803
21.194233 182.6217 -952.08307
17.206776 182.04228 -953.55945
23.177828 184.62029 -953.41089
26.307295 185.13747 -953.32184
22.461853 186.18613 -955.77881
19.811659 185.98553 -956.97046
17.714987 184.20624 -955.74652
17.273073 185.61726 -958.10876
13.678462 185.35396 -960.25635
21.897352 187.36566 -957.95496
11.593536 183.39746 -958.51434
7.7518802 181.84497 -958.84869
5.764554 183.19383 -962.60065
16.443924 178.05708 -950.76196
13.2012 179.82657 -953.65936
17.157351 187.1909 -960.97723
26.984093 186.91426 -955.62512
29.683397 187.86211 -956.83801
27.509047 188.39505 -957.86249
7.9023743 185.50574 -964.83875
4.6686716 185.54153 -969.42084
4.904726 184.18381 -965.85553
7.0478454 179.44196 -956.59979
63.434242 180.0291 -941.02625
60.374031 179.96437 -940.72479
59.216091 182.50334 -942.07166
81.84948 156.48541 -945.30145
80.137375 153.99393 -948.2395
81.141808 176.10997 -936.80927
81.294342 173.29584 -936.94489
83.450584 172.01321 -936.75879
83.442459 169.61586 -937.08276
81.197304 168.20944 -937.67694
85.727158 173.08223 -936.51678
85.791512 175.81183 -936.48444
83.660545 177.15361 -936.53357
79.061279 171.69154 -937.3208
42.793583 161.21339 -940.58527
4.9470439 158.96309 -947.55292
28.853508 138.08621 -949.8382
32.528923 137.40262 -950.69257
36.073845 136.82883 -951.77002
36.651112 134.14108 -954.95166
33.474792 132.46948 -956.50305
28.713581 132.96146 -954.8407
32.427849 130.51439 -960.21381
29.69614 129.17291 -963.58252
25.006107 128.91051 -962.6947
39.088173 133.05113 -957.22601
29.313314 135.08014 -952.57599
-9.4632425 163.38771 -955.7934
8.173461 188.01698 -972.23145
68.544556 182.25439 -941.42505
68.711174 184.37572 -942.6001
70.876495 186.00809 -942.91217
73.038124 186.79599 -942.60046
66.46888 183.38472 -942.6604
64.541153 184.60748 -943.70831
65.047005 186.8868 -945.41132
64.2006 182.38112 -942.25781
67.997726 187.80522 -945.53125
69.545967 190.01335 -946.86932
62.552845 185.69125 -944.43457
60.236851 186.46109 -944.87268
57.407715 188.6346 -946.85101
54.041981 186.49423 -945.7923
64.241203 189.06181 -947.49615
63.972977 190.94633 -949.84503
69.224976 191.73323 -949.25793
66.992966 192.04594 -951.01404
61.787334 189.63554 -948.01837
59.085186 190.13948 -948.34186
57.355724 191.59468 -950.36432
61.815338 181.73286 -941.82471
59.990414 188.4166 -946.56158
71.741875 193.13417 -949.95752
74.386948 193.40576 -948.69598
76.079109 192.59027 -946.47479
80.024689 193.45395 -945.73804
81.822121 195.5992 -948.99683
82.459076 191.30721 -942.92511
85.31929 189.57349 -941.05737
88.34166 190.3394 -940.77136
91.667503 191.28764 -940.67102
95.927025 193.11705 -941.13428
96.36451 195.7509 -943.69904
93.978943 197.01634 -946.65485
89.516548 196.05428 -946.0741
98.710587 197.32288 -945.70599
100.19296 198.75435 -948.68829
97.788628 199.59781 -952.28741
102.72146 199.84761 -951.4386
100.69541 200.03543 -955.35577
106.7609 199.92766 -950.9621
102.7035 197.59004 -945.02661
104.37792 195.22334 -941.29053
106.06229 197.87517 -944.89069
108.31721 193.17831 -939.33167
109.3983 198.53242 -946.19232
115.17508 196.86116 -947.34229
112.93083 196.65764 -944.57745
111.53474 194.33702 -941.08142
112.17385 189.44127 -937.69275
89.065926 193.36707 -942.65558
87.800362 188.0997 -939.37091
83.69796 194.58392 -945.66907
103.13995 199.6852 -958.28296
33.931881 161.88997 -941.66083
42.951794 176.50581 -942.64807
11.523139 186.42447 -963.91315
12.937686 187.73332 -965.93225
12.371263 188.43867 -968.63501
14.307367 189.54915 -970.89343
15.8422 190.3073 -972.89166
14.718901 190.36852 -977.37268
19.637917 191.52568 -975.78424
23.114841 192.20863 -978.68665
21.922344 191.13303 -983.97876
18.96081 188.79149 -988.414
13.500583 189.82376 -981.81396
8.6816969 188.33348 -983.31903
17.313864 190.15111 -984.26959
64.783257 168.84492 -938.77008
99.201912 182.26851 -935.45978
104.40168 182.73001 -935.24261
47.120518 184.43367 -946.37646
98.885994 192.94583 -940.32178
100.80017 191.12294 -938.50159
102.15615 189.03249 -936.90411
106.49747 189.06976 -936.57416
103.94486 187.10745 -935.91473
99.355629 188.64034 -937.17444
98.331635 185.91354 -936.01752
101.54768 193.47214 -940.08722
93.713318 190.01965 -939.37592
117.2598 187.29085 -940.68146
18.967203 138.90797 -951.44159
21.218479 137.49106 -951.35059
23.066824 134.0497 -953.5993
19.654484 177.47844 -948.96857
20.696438 175.31639 -947.65192
19.619667 172.97368 -947.34595
16.837006 172.6566 -948.539
15.162513 174.36752 -949.4613
12.667274 173.07848 -949.73395
55.774002 182.27338 -995.27191
-5.0119486 163.56227 -955.55334
36.320587 145.70747 -945.34827
38.02029 147.78027 -944.62805
41.178711 147.67239 -944.93567
42.382183 145.67081 -946.20227
55.803043 178.50417 -940.37042
58.697472 177.5332 -939.72693
54.695354 182.70609 -942.91364
68.68399 145.5023 -983.80347
67.629723 143.28674 -980.60461
65.084396 141.61073 -980.3866
62.295971 139.02905 -977.54822
64.821358 139.46123 -974.30591
65.902245 139.22557 -969.36853
61.637505 137.52457 -967.01477
68.225555 141.35454 -974.15057
71.849998 143.41891 -973.72058
68.727112 140.63776 -966.42188
69.778107 143.25943 -977.05579
46.387188 134.84538 -958.37616
96.70282 163.17374 -974.75244
69.337662 177.57999 -993.07275
80.004601 180.1104 -937.17383
81.943863 181.81332 -937.15833
81.805511 184.40742 -938.41846
83.775246 180.06076 -936.54059
86.026688 181.02022 -936.34772
86.648575 183.2352 -936.72784
88.927734 184.2702 -936.7345
89.645386 186.75188 -938.03253
90.536263 182.59909 -936.0387
92.714844 182.89038 -935.86615
93.535461 185.09793 -936.32709
92.100357 186.6981 -937.40845
94.64254 181.34741 -935.67084
96.972054 181.42366 -935.5589
94.337624 178.98869 -935.83795
95.427551 176.90248 -935.84338
94.967812 174.05441 -935.99731
92.758255 173.0818 -936.16675
98.055557 176.99408 -935.67676
100.67959 176.31091 -935.6759
101.82053 173.98532 -936.2251
98.974251 170.20686 -937.75482
103.5085 176.48946 -935.68921
103.17263 171.73175 -937.49615
107.89449 171.06412 -938.64008
104.63319 178.84831 -935.41437
106.24544 176.31696 -935.91681
107.49973 173.98688 -936.92108
108.87365 176.64151 -936.13245
113.28785 178.58522 -936.34192
110.55026 179.30965 -935.74036
107.81223 182.43132 -935.28015
111.47032 183.14774 -935.64374
113.05503 186.80067 -936.89935
90.325089 180.34474 -936.01508
84.684616 184.61906 -937.78333
85.659576 186.48842 -938.80115
85.251427 188.02419 -940.04315
82.779877 188.80637 -941.22083
88.04686 179.41478 -936.1734
87.543869 177.34825 -936.3158
91.968918 178.40958 -936.06354
99.173592 178.92307 -935.5387
88.887024 175.89627 -936.3186
90.357323 173.84431 -936.23315
88.260963 171.86836 -936.39191
91.188805 176.00183 -936.1781
97.195885 172.60382 -936.35236
95.711548 185.67213 -936.25458
97.018707 187.65108 -937.03284
95.975601 189.22218 -938.28278
81.361137 186.99884 -940.32758
79.668617 188.33371 -941.68054
96.852608 170.56789 -937.25806
97.761078 167.621 -939.29852
94.17659 168.83398 -937.79749
101.76089 166.79822 -940.42578
104.6619 166.42201 -941.26111
100.4112 180.65555 -935.42639
101.90089 182.55215 -935.31909
103.01832 180.64264 -935.3103
102.8317 184.80637 -935.4519
100.42134 184.41336 -935.53522
105.28095 170.49313 -938.547
106.7258 168.97798 -939.81946
109.14526 169.11256 -940.3988
110.71803 171.41745 -939.13422
114.26095 173.95097 -938.6745
111.59905 168.41516 -942.20538
114.57798 169.01672 -943.3858
116.70244 168.81374 -945.75385
111.02128 166.51573 -944.48706
107.74943 164.86798 -944.84283
115.47735 166.8136 -948.75323
116.13391 166.58406 -951.18524
119.58079 168.89491 -952.9845
112.42059 165.34688 -948.15686
116.09261 171.02194 -941.97943
118.49422 173.87726 -941.42072
111.07961 163.96086 -950.28998
111.73187 163.71822 -953.36694
114.14243 165.41849 -955.64557
113.70035 165.82521 -958.53162
109.70675 162.59973 -955.04596
109.35973 162.77592 -957.79956
107.26054 161.25034 -955.72028
105.30515 160.356 -953.78729
103.04631 159.97906 -951.87054
105.64148 161.27103 -951.26532
106.4904 162.56781 -948.72095
104.7797 162.88156 -946.30518
104.9888 159.99232 -956.9339
104.26864 160.1837 -959.87683
106.69905 162.62918 -963.27429
102.70061 158.63741 -958.05682
101.05501 157.74135 -955.81683
99.137436 157.47148 -953.64941
96.957542 157.20464 -952.33459
96.65696 158.7731 -948.22955
96.099373 155.99675 -954.34387
102.10913 162.25862 -945.11908
100.77601 164.08133 -942.22614
98.115074 162.40074 -943.01166
101.27305 160.92674 -947.55457
96.529869 160.7149 -944.28552
93.672966 159.2466 -944.98889
91.396118 159.48763 -943.99475
87.786674 157.96974 -944.83997
93.930855 157.82162 -947.79315
91.361099 156.4259 -948.92523
88.969353 156.26199 -947.6698
95.908356 163.14055 -941.953
93.303833 163.40324 -941.38806
96.032898 165.38608 -940.48077
116.49813 168.01596 -959.23181
118.88869 169.15865 -957.35278
116.97311 169.51076 -961.76544
115.08698 169.6113 -964.38422
112.18919 166.60228 -963.82843
118.78126 171.8938 -962.62048
121.12017 171.21526 -957.61475
121.69101 173.28461 -960.0788
123.21431 173.47159 -956.05994
123.41882 173.5966 -953.59967
121.96905 171.37251 -951.00336
124.12376 176.13786 -956.0152
124.29984 179.6812 -954.82605
124.16914 177.82072 -958.43085
122.71756 178.58438 -962.98126
122.37128 183.77843 -964.0907
124.25935 180.0106 -951.49304
123.53338 177.53011 -950.20288
124.89813 182.5211 -950.2323
124.88271 187.90396 -952.42548
123.46806 184.0667 -945.49292
120.55272 170.68544 -948.43011
120.67988 172.09599 -946.0116
121.81404 174.79214 -945.99768
122.19215 178.25261 -946.03589
122.49875 181.15605 -945.6123
122.48384 175.55884 -961.37793
111.35944 164.44098 -959.10681
112.54968 165.8609 -961.23627
108.46465 162.94319 -960.55981
106.14937 161.68466 -960.93835
104.48138 161.24303 -962.79956
104.91126 162.15431 -965.44757
101.85924 160.95483 -967.57538
101.12807 163.6124 -971.77936
104.82499 167.47707 -971.52002
103.95332 162.76361 -968.28638
106.9633 163.62775 -965.69354
109.13877 165.2921 -965.78894
109.20709 167.26939 -967.98376
108.4321 170.03987 -970.43115
107.089 167.65944 -969.94946
110.74358 173.2673 -970.64337
109.31705 176.87715 -973.26984
99.977219 159.12961 -965.21545
98.187363 157.49078 -962.9389
106.41878 169.70253 -971.77087
103.83995 171.6032 -975.065
99.711472 171.09648 -977.61432
96.709694 167.1922 -977.36151
104.19162 169.31602 -973.21796
105.54794 171.30344 -973.51318
105.56144 173.94626 -975.06799
106.45411 177.63435 -975.15405
104.33448 179.32623 -976.15234
102.04338 178.74409 -977.27393
100.11848 175.2972 -978.46082
104.62071 182.0583 -975.52203
107.17141 183.25017 -974.11761
109.34537 181.75568 -973.19122
111.84052 183.11176 -971.73517
111.98419 186.04002 -971.22559
114.96849 188.32085 -968.97485
113.79999 181.25548 -970.84015
117.67368 182.35234 -968.41431
117.53751 190.63008 -966.29535
116.51508 194.33546 -963.91846
108.7564 188.00659 -972.39203
105.31343 189.23947 -973.36694
103.77001 192.44754 -971.09583
111.34335 189.93961 -970.26129
109.84763 193.20992 -968.32465
111.13021 195.52493 -965.27679
102.91779 184.54881 -976.04022
100.35474 184.02995 -977.24884
98.848221 181.56775 -978.33441
97.70916 183.99554 -978.4776
95.257935 187.82581 -977.91614
101.60249 186.87061 -976.04242
102.7965 188.81532 -974.58582
100.05717 188.97842 -975.55554
113.55403 178.41164 -970.78992
116.13126 176.34445 -968.24908
97.46228 175.63222 -979.6908
94.085464 174.35858 -981.18634
91.899361 170.44881 -981.72028
89.802658 174.714 -982.94653
115.60398 179.14641 -969.5658
107.1068 185.95804 -973.70007
97.453941 188.87013 -976.55231
98.361061 190.86172 -974.36804
99.050117 192.83998 -972.12274
96.408463 192.4753 -973.29419
93.823196 192.00357 -974.45172
91.698692 190.40579 -976.6062
88.291367 190.10361 -977.61743
92.669395 194.10373 -972.77002
89.996971 194.67085 -972.82489
88.160606 195.86076 -971.57849
83.961372 196.44933 -970.38507
88.169525 193.57463 -974.40741
85.470024 193.09715 -975.36584
83.3032 194.18935 -974.40753
81.227219 195.31624 -972.39337
93.153046 195.83417 -970.79022
91.74733 197.18164 -968.35089
95.739876 196.03607 -969.88898
97.567825 194.59238 -970.98889
98.119904 196.35735 -968.78485
100.62346 196.62376 -967.49823
103.31268 196.77052 -966.40448
105.77255 197.12106 -965.09601
102.57051 195.36955 -968.43512
98.39695 197.58362 -966.33459
98.31218 198.4131 -963.47882
95.968964 198.14093 -964.97333
93.272995 198.20956 -964.40796
91.019035 198.56456 -962.40759
92.793991 199.1684 -959.9505
88.14209 198.17734 -964.0835
96.429062 199.37962 -959.02832
91.627373 199.60477 -956.4054
91.861931 199.18134 -953.57184
93.889748 198.71205 -951.25806
86.841888 198.82332 -961.20062
86.398361 199.10583 -957.979
84.344086 198.4557 -955.99652
80.226639 197.88008 -956.9718
89.304901 197.1487 -968.57758
113.00786 196.62587 -963.021
107.94584 195.85857 -966.09985
103.32337 198.04559 -964.12903
101.03867 198.7011 -962.61774
102.38113 199.20253 -960.62402
120.42644 181.97321 -966.29022
93.551445 155.12683 -954.26874
91.420341 155.06415 -952.41998
89.00367 153.9111 -953.03198
87.294144 152.71173 -954.99707
84.715782 151.71063 -955.74799
82.738609 151.68648 -953.86902
83.207588 152.90279 -951.14478
87.101761 153.80545 -951.58344
86.997002 155.09381 -948.76709
86.493866 156.35707 -946.44446
84.273354 150.98508 -958.40857
82.055763 149.78165 -959.77124
80.085594 149.03285 -958.01532
82.266548 149.5134 -962.47986
84.334381 150.73033 -964.34381
86.613594 151.99046 -965.23853
79.03183 149.29776 -955.70929
76.146828 148.78638 -952.9599
76.735023 150.96375 -950.53857
80.231407 147.87401 -963.61432
77.533127 145.60721 -966.37433
78.149391 146.45569 -962.11359
76.620598 146.13547 -959.31134
74.128052 144.75929 -958.79437
71.479935 143.47961 -958.80127
69.36293 143.37929 -956.66962
68.718475 142.26984 -959.25037
65.995705 140.97156 -960.10901
63.615368 139.69733 -961.30115
59.803822 137.90625 -962.40131
64.008331 140.78502 -958.44434
70.782944 145.12874 -953.76025
73.387993 146.26132 -954.10211
70.032425 146.28719 -951.23364
68.033066 141.19954 -961.87659
69.857208 141.47075 -964.01819
72.350876 142.67747 -963.81677
73.17144 143.57623 -961.32043
74.625496 143.86612 -964.01575
71.21582 141.88182 -966.15594
72.114723 142.47821 -968.93591
74.450783 143.86531 -969.3111
76.71199 145.58604 -970.81787
79.005905 146.9729 -968.76123
76.270615 146.1067 -973.70178
78.118683 147.78546 -974.99652
77.651573 148.61194 -977.83582
74.004921 145.05829 -974.81049
80.376312 149.10753 -973.38837
82.171608 151.29599 -974.45935
80.735779 148.79796 -970.72192
82.848694 150.36082 -969.06317
84.570496 151.90384 -969.99646
86.880753 152.81483 -968.18121
88.91803 154.2868 -969.54028
89.242615 156.21623 -972.89819
89.649338 158.89276 -975.90552
88.153694 162.10623 -979.61914
93.278961 160.86501 -975.29749
93.593887 164.16084 -977.59247
95.889198 159.9603 -972.46399
81.686836 152.05959 -977.02032
79.577484 150.72969 -978.70221
83.051208 154.34975 -977.84821
82.656181 155.8084 -980.12585
85.117088 159.103 -979.91748
84.561363 162.76949 -982.96436
75.244308 147.39189 -978.95728
79.262726 152.16956 -981.16095
80.403717 154.40735 -981.95868
79.981476 156.74992 -984.30365
77.328033 151.67679 -982.97131
76.287674 152.93695 -985.08173
77.232674 155.09564 -985.76373
75.5634 149.70911 -982.54797
80.91787 160.12312 -985.37787
76.150154 156.99374 -987.72119
73.854942 156.88428 -989.25006
84.344032 152.73097 -972.69885
86.38018 154.76579 -973.55347
74.083191 152.49467 -986.54785
72.877296 154.02238 -988.36615
70.650772 153.42644 -989.56732
69.162628 151.2451 -989.2821
69.826263 149.44783 -987.45685
72.476562 150.49254 -986.24628
73.262482 149.17297 -984.2049
72.064056 147.52887 -983.20703
71.623734 146.13422 -981.29974
69.608337 144.83772 -981.29688
73.291298 146.38492 -979.50836
73.29332 145.52435 -977.35443
84.78894 155.60237 -976.72699
84.547348 157.06543 -978.72455
75.877762 159.12529 -989.06097
76.335587 162.43674 -990.16119
77.346497 161.04216 -988.87158
78.681969 163.58943 -988.78107
80.229912 165.69624 -987.96399
82.114677 165.53064 -986.1084
84.499847 168.72243 -984.87183
82.396561 172.61935 -986.40985
88.1045 169.20946 -983.12097
79.419601 161.2836 -987.29987
79.375938 168.08125 -988.94769
77.166283 168.37207 -990.69977
75.358818 166.9165 -991.74542
76.793274 171.18172 -990.8537
76.80928 173.97878 -990.42126
78.616081 175.47859 -988.73578
76.051514 176.40533 -990.26978
73.486076 176.88625 -991.47198
71.613319 175.09561 -992.73352
69.239609 175.09865 -993.745
67.75782 172.28645 -994.94287
80.551727 170.71347 -988.02014
73.264427 167.64626 -992.95764
72.43602 170.40562 -993.16815
74.673019 178.92838 -990.11719
75.766609 180.68059 -988.52173
77.97892 180.16641 -987.27863
80.30761 180.10747 -985.77844
82.868942 180.24681 -984.56226
81.052109 182.25462 -984.43445
85.428162 180.54465 -983.67944
86.632416 182.97855 -982.60992
88.310616 185.2905 -981.23328
91.149094 185.03658 -980.62683
87.944145 180.64023 -982.89795
89.244171 177.96367 -982.88708
84.011772 177.88806 -984.76459
82.803978 175.36342 -985.81281
85.516731 175.86353 -984.51276
80.52076 173.35025 -987.72668
79.165192 177.90512 -987.57141
90.24279 180.14891 -982.18402
92.170067 182.51147 -981.04651
80.730965 175.85188 -987.06897
74.864647 172.07883 -991.83099
76.568069 182.41786 -986.8808
77.174477 184.21481 -985.164
75.158066 184.49652 -986.31427
77.732796 186.03044 -983.39423
79.045212 187.58377 -981.51782
81.851448 187.94106 -980.62488
87.33062 187.87022 -979.71869
84.570816 188.84612 -979.43677
82.075043 190.00447 -978.82892
73.619324 186.39612 -985.72821
72.113129 188.1918 -984.84387
69.900734 189.72275 -984.31592
69.539604 191.57172 -981.95258
73.019554 184.66745 -987.63605
74.223846 188.08549 -983.41656
74.287537 189.6644 -981.42365
71.905846 191.11913 -980.91425
67.691696 190.55846 -984.26318
67.043404 192.04707 -982.53149
64.792938 193.34651 -981.2666
65.793274 189.83353 -985.75635
63.090328 190.51662 -985.67822
82.055206 184.07133 -983.16901
84.347992 184.50049 -982.39178
94.395477 180.22226 -980.50055
95.82 177.84605 -980.16248
82.935127 163.44046 -984.77771
102.64658 167.4017 -973.17468
100.76877 165.40015 -973.29053
98.511215 165.47466 -974.98889
98.878052 163.57635 -973.44104
102.98 165.6492 -971.73547
105.18848 165.45795 -969.90155
66.616386 143.04292 -954.90002
109.08622 179.15363 -973.55127
69.337921 143.74763 -979.10944
67.599373 142.47435 -978.56378
90.547966 161.86931 -977.87872
63.506477 138.81531 -964.10254
65.924957 139.36336 -966.28778
72.209106 142.99091 -971.37366
82.508766 161.18965 -984.26697
67.480499 140.36462 -964.37427
72.769936 172.89818 -992.68201
73.399734 181.38496 -989.62115
71.305168 181.65341 -990.57306
69.602112 179.98146 -992.0824
99.478973 161.74313 -971.4187
101.41474 161.78999 -969.71674
97.510773 161.52705 -972.87445
97.566521 159.88313 -970.84875
96.493996 158.09871 -968.46832
95.816383 158.55286 -970.46741
93.817726 157.12856 -970.03644
91.276024 156.13565 -970.86188
94.234619 158.41389 -971.86224
93.960556 159.6059 -973.59576
95.338486 161.36226 -974.28937
92.044617 159.08704 -974.43451
90.630669 157.69693 -973.90857
88.385834 157.22386 -974.99164
113.91292 171.00264 -966.7373
114.83083 173.84612 -967.87567
112.71976 172.56403 -968.66095
117.09194 174.70909 -966.60388
70.295052 146.63899 -983.79968
68.99884 147.2993 -986.04083
89.202255 198.39297 -952.54187
86.590279 197.58028 -951.83911
88.690063 197.34674 -949.91943
90.821999 197.10966 -948.17212
93.441483 197.78609 -948.96161
83.986214 196.69221 -950.9519
84.294571 197.68304 -953.60199
89.267982 199.18542 -955.25372
111.46678 176.93713 -936.41852
113.43429 175.91148 -937.29449
115.39251 177.72304 -937.36981
118.23092 180.3555 -939.40222
115.32669 180.37688 -936.85791
112.73423 181.04094 -935.91687
101.78573 193.82208 -970.34869
101.56005 192.27023 -972.01196
103.47726 190.647 -972.95386
104.31193 194.10936 -969.23639
105.99001 192.92964 -969.93439
105.62455 191.16771 -971.74799
40.45578 143.37846 -1010.6014
46.357624 144.90527 -1009.3196
39.122883 138.71182 -1010.6994
35.16872 135.18289 -1012.226
23.953955 188.64534 -959.26929
46.244259 183.2924 -996.28711
9.8664675 188.03439 -970.04492
7.4575477 186.98976 -969.28412
10.471507 188.7334 -972.44751
8.7998819 188.65648 -974.97919
5.841712 188.12137 -978.54785
1.8711289 186.96619 -978.86444
-1.5152913 186.14026 -983.72797
6.0285759 186.90338 -971.25208
3.8270009 185.98033 -972.16754
6.118279 187.54803 -973.78351
2.2226503 183.31119 -969.45471
1.4600497 184.91641 -973.90582
-1.4213518 184.87865 -977.14142
0.38657767 182.58562 -972.01678
0.33723828 180.8726 -969.37744
-0.46054986 178.85419 -967.24689
48.962692 192.73892 -956.50104
-2.125062 104.98033 -1001.6117
4.3537211 104.62086 -1001.962
108.50434 163.92522 -963.5459
110.53519 165.27008 -963.62744
76.876717 171.99667 -937.6308
75.368813 173.9706 -937.76837
60.941856 164.85344 -938.49042
78.91835 146.71878 -965.27625
51.004917 133.40309 -967.24365
54.274151 134.69136 -969.00427
57.601383 136.0513 -967.6062
53.776768 135.1478 -965.09497
48.591022 131.1954 -969.57886
45.455994 129.87627 -968.21082
48.936935 130.48872 -972.57532
51.615009 132.00558 -974.68536
51.646103 131.34184 -979.27179
54.242191 134.30708 -980.68274
54.3312 134.37598 -973.34235
56.318401 135.54138 -974.68799
58.849884 136.52541 -973.38617
59.00116 136.38042 -970.51538
61.024681 137.71471 -975.0025
55.908573 135.62645 -977.6673
58.49934 137.80083 -980.05597
58.641071 139.38104 -983.76868
56.548817 138.41518 -985.92163
54.847294 135.48399 -985.46124
54.079281 132.94312 -987.82977
53.92878 131.53075 -991.37518
51.546566 129.39709 -987.71698
49.673489 129.33284 -984.0603
49.8269 129.77039 -981.18689
47.864201 128.78381 -979.18994
46.345665 128.13931 -976.21826
43.490944 127.04862 -975.55524
41.751392 127.10197 -972.87402
42.496563 128.12967 -970.19379
39.80545 127.99325 -968.55408
37.141617 127.38984 -969.05316
52.611359 132.08443 -981.38287
53.921021 133.66487 -983.1618
58.497181 140.49455 -986.12891
58.972359 142.12273 -988.39825
57.414799 142.23369 -990.651
61.104259 143.93283 -988.81769
63.037277 143.9061 -987.25372
63.196568 142.51147 -984.93774
60.961708 140.9507 -984.21594
65.151772 145.43251 -987.38702
66.816132 145.05714 -985.26184
65.606056 147.2355 -988.89685
67.670418 148.85184 -988.69238
63.743866 147.64844 -990.60345
61.491978 146.01579 -990.71643
59.45993 146.37621 -992.37012
57.490303 144.70903 -993.13837
56.570606 146.07172 -995.57098
63.649338 149.77692 -992.19452
61.833527 150.43185 -993.77478
65.386185 151.08943 -991.85834
