# .PCD v.7 - Point Cloud Data file format
FIELDS x y z rgb imX imY
SIZE 4 4 4 4 4 4
TYPE F F F F F F
COUNT 1 1 1 1 1 1
WIDTH 834
HEIGHT 1
VIEWPOINT 0 0 0 1 0 0 0
POINTS 834
DATA ascii
0.0048391996 0.69 -0.018146999 1.2728797e-38 324 255
0.0060489997 0.69 -0.018146999 1.3466362e-38 325 255
0.0072693196 0.69099998 -0.0181733 1.4019541e-38 326 255
0.008480873 0.69099998 -0.0181733 1.4019541e-38 327 255
0.0097204801 0.69300002 -0.018225901 1.4019185e-38 328 255
0.01095132 0.69400001 -0.0182522 1.392699e-38 329 255
0.012168133 0.69400001 -0.0182522 1.3466365e-38 330 255
0.013423519 0.69599998 -0.018304799 1.3281973e-38 331 255
0.014643839 0.69599998 -0.018304799 1.3464919e-38 332 255
0.015909746 0.69800001 -0.0183574 1.3372723e-38 333 255
0.017182667 0.69999999 -0.018409999 1.3095412e-38 334 255
0.018409999 0.69999999 -0.018409999 1.2450042e-38 335 255
0.019721493 0.70300001 -0.018488899 1.2172729e-38 336 255
0.020954086 0.70300001 -0.018488899 1.2541871e-38 337 255
0.022218239 0.704 -0.018515198 1.3003199e-38 338 255
0.023452586 0.704 -0.018515198 1.8350546e-38 339 255
-0.038264744 0.704 -0.019749546 2.1203921e-38 289 256
-0.036977798 0.70300001 -0.019721493 1.7324512e-38 290 256
-0.035745207 0.70300001 -0.019721493 1.3729243e-38 291 256
-0.034512613 0.70300001 -0.019721493 1.3727092e-38 292 256
-0.03318534 0.70099998 -0.019665385 1.3634895e-38 293 256
-0.031910665 0.69999999 -0.019637333 1.4451001e-38 294 256
-0.030595668 0.69800001 -0.019581227 1.6387109e-38 295 256
-0.029371841 0.69800001 -0.019581227 1.5849058e-38 296 256
-0.028107686 0.69700003 -0.019553173 1.769297e-38 297 256
-0.026847038 0.69599998 -0.019525118 1.6688543e-38 298 256
-0.025626717 0.69599998 -0.019525118 1.7057324e-38 299 256
-0.024336265 0.69400001 -0.019469013 1.6323722e-38 300 256
-0.02308614 0.69300002 -0.01944096 1.613969e-38 301 256
-0.021807959 0.69099998 -0.019384852 1.6048211e-38 302 256
-0.020596405 0.69099998 -0.019384852 1.5771984e-38 303 256
-0.01944096 0.69300002 -0.01944096 1.5862375e-38 304 256
-0.0181733 0.69099998 -0.019384852 1.5217006e-38 305 256
-0.016961746 0.69099998 -0.019384852 1.3926987e-38 306 256
-0.015750192 0.69099998 -0.019384852 1.3189421e-38 307 256
-0.014517599 0.69 -0.019356798 1.2179592e-38 308 256
-0.0133078 0.69 -0.019356798 1.1718253e-38 309 256
-0.012062933 0.68800002 -0.019300694 1.0614427e-38 310 256
-0.010856641 0.68800002 -0.019300694 1.0061612e-38 311 256
-0.0096503468 0.68800002 -0.019300694 9.3258459e-39 312 256
-0.0084440531 0.68800002 -0.019300694 9.0488988e-39 313 256
-0.0072377604 0.68800002 -0.019300694 9.0499821e-39 314 256
-0.0060314666 0.68800002 -0.019300694 9.9715782e-39 315 256
-0.0048251734 0.68800002 -0.019300694 1.0707345e-38 316 256
-0.0036188802 0.68800002 -0.019300694 1.1076487e-38 317 256
-0.0024125867 0.68800002 -0.019300694 1.2178513e-38 318 256
-0.0012062934 0.68800002 -0.019300694 1.2547654e-38 319 256
0 0.69 -0.019356798 1.3098308e-38 320 256
0.0012097999 0.69 -0.019356798 1.3006111e-38 321 256
0.0024195998 0.69 -0.019356798 1.3557131e-38 322 256
0.0036293997 0.69 -0.019356798 1.3926272e-38 323 256
0.0048391996 0.69 -0.019356798 1.4479087e-38 324 256
0.0060577663 0.69099998 -0.019384852 1.4479087e-38 325 256
0.0072903596 0.69300002 -0.01944096 1.402063e-38 326 256
0.0085054198 0.69300002 -0.01944096 1.2914281e-38 327 256
0.0097204801 0.69300002 -0.01944096 1.2817774e-38 328 256
0.01095132 0.69400001 -0.019469013 1.2448632e-38 329 256
0.012168133 0.69400001 -0.019469013 1.2086314e-38 330 256
0.013423519 0.69599998 -0.019525118 1.217851e-38 331 256
0.014643839 0.69599998 -0.019525118 1.3094341e-38 332 256
0.015909746 0.69800001 -0.019581227 1.2909591e-38 333 256
0.017182667 0.69999999 -0.019637333 1.2448969e-38 334 256
0.018436298 0.70099998 -0.019665385 1.2448969e-38 335 256
0.019721493 0.70300001 -0.019721493 1.2632271e-38 336 256
0.020954086 0.70300001 -0.019721493 1.3092891e-38 337 256
0.022218239 0.704 -0.019749546 1.3829363e-38 338 256
0.023452586 0.704 -0.019749546 1.9176711e-38 339 256
-0.038264744 0.704 -0.020983893 2.1572708e-38 289 257
-0.036977798 0.70300001 -0.020954086 1.7970588e-38 290 257
-0.035745207 0.70300001 -0.020954086 1.3453003e-38 291 257
-0.034512613 0.70300001 -0.020954086 1.4734384e-38 292 257
-0.03318534 0.70099998 -0.020894472 1.4273765e-38 293 257
-0.031910665 0.69999999 -0.020864666 1.2960737e-38 294 257
-0.030595668 0.69800001 -0.020805053 1.3052933e-38 295 257
-0.029371841 0.69800001 -0.020805053 1.297048e-38 296 257
-0.028107686 0.69700003 -0.020775247 1.6934892e-38 297 257
-0.026885614 0.69700003 -0.020775247 1.594379e-38 298 257
-0.025626717 0.69599998 -0.020745439 1.7511116e-38 299 257
-0.024336265 0.69400001 -0.020685827 1.668999e-38 300 257
-0.02308614 0.69300002 -0.020656019 1.6413045e-38 301 257
-0.021807959 0.69099998 -0.020596405 1.5587953e-38 302 257
-0.020596405 0.69099998 -0.020596405 1.5495756e-38 303 257
-0.01944096 0.69300002 -0.020656019 1.5771984e-38 304 257
-0.0181733 0.69099998 -0.020596405 1.5126615e-38 305 257
-0.016961746 0.69099998 -0.020596405 1.2824964e-38 306 257
-0.015750192 0.69099998 -0.020596405 1.3838757e-38 307 257
-0.014517599 0.69 -0.020566599 1.4758918e-38 308 257
-0.0133078 0.69 -0.020566599 1.4758918e-38 309 257
-0.012097999 0.69 -0.020566599 1.5034066e-38 310 257
-0.010888199 0.69 -0.020566599 1.5126262e-38 311 257
-0.0096503468 0.68800002 -0.020506985 1.5401767e-38 312 257
-0.0084440531 0.68800002 -0.020506985 1.5494321e-38 313 257
-0.0072377604 0.68800002 -0.020506985 1.5494318e-38 314 257
-0.0060314666 0.68800002 -0.020506985 1.5494318e-38 315 257
-0.0048251734 0.68800002 -0.020506985 1.5034782e-38 316 257
-0.0036188802 0.68800002 -0.020506985 1.4666e-38 317 257
-0.0024125867 0.68800002 -0.020506985 1.4756756e-38 318 257
-0.0012097999 0.69 -0.020566599 1.4848952e-38 319 257
0 0.69 -0.020566599 1.5122659e-38 320 257
0.0012097999 0.69 -0.020566599 1.4754235e-38 321 257
0.0024195998 0.69 -0.020566599 1.3926637e-38 322 257
0.0036293997 0.69 -0.020566599 1.3373463e-38 323 257
0.0048462129 0.69099998 -0.020596405 1.2913206e-38 324 257
0.0060577663 0.69099998 -0.020596405 1.3281989e-38 325 257
0.0072903596 0.69300002 -0.020656019 1.3283434e-38 326 257
0.0085054198 0.69300002 -0.020656019 1.060976e-38 327 257
0.0097204801 0.69300002 -0.020656019 8.7655002e-39 328 257
0.01095132 0.69400001 -0.020685827 8.6733046e-39 329 257
0.012168133 0.69400001 -0.020685827 1.0241701e-38 330 257
0.013423519 0.69599998 -0.020745439 1.153244e-38 331 257
0.01466488 0.69700003 -0.020775247 1.2448621e-38 332 257
0.015909746 0.69800001 -0.020805053 1.2263871e-38 333 257
0.017182667 0.69999999 -0.020864666 1.1896521e-38 334 257
0.018436298 0.70099998 -0.020894472 1.1988717e-38 335 257
0.019721493 0.70300001 -0.020954086 1.2908149e-38 336 257
0.020983893 0.704 -0.020983893 1.3369486e-38 337 257
0.022281358 0.70599997 -0.021043506 1.4014121e-38 338 257
0.023519212 0.70599997 -0.021043506 1.9177076e-38 339 257
-0.040004052 0.713 -0.022502279 2.2679052e-38 288 258
-0.038264744 0.704 -0.022218239 2.1941487e-38 289 258
-0.037030395 0.704 -0.022218239 1.8985463e-38 290 258
-0.035796054 0.704 -0.022218239 1.5205442e-38 291 258
-0.034512613 0.70300001 -0.02218668 1.6207351e-38 292 258
-0.033280019 0.70300001 -0.02218668 1.5377589e-38 293 258
-0.031956252 0.70099998 -0.022123558 1.388375e-38 294 258
-0.030595668 0.69800001 -0.02202888 1.305363e-38 295 258
-0.029371841 0.69800001 -0.02202888 1.3690759e-38 296 258
-0.028107686 0.69700003 -0.02199732 1.3598563e-38 297 258
-0.026885614 0.69700003 -0.02199732 1.3706992e-38 298 258
-0.025626717 0.69599998 -0.021965759 1.6933839e-38 299 258
-0.024336265 0.69400001 -0.021902639 1.5302737e-38 300 258
-0.02308614 0.69300002 -0.021871079 1.6870063e-38 301 258
-0.021871079 0.69300002 -0.021871079 1.5495759e-38 302 258
-0.020656019 0.69300002 -0.021871079 1.5311369e-38 303 258
-0.01944096 0.69300002 -0.021871079 1.5128776e-38 304 258
-0.018225901 0.69300002 -0.021871079 1.4299015e-38 305 258
-0.016961746 0.69099998 -0.021807959 7.3058335e-39 306 258
-0.015750192 0.69099998 -0.021807959 7.1214422e-39 307 258
-0.014538639 0.69099998 -0.021807959 9.7897331e-39 308 258
-0.013327086 0.69099998 -0.021807959 1.0987918e-38 309 258
-0.012097999 0.69 -0.021776399 1.3742621e-38 310 258
-0.010888199 0.69 -0.021776399 1.3281283e-38 311 258
-0.0096783992 0.69 -0.021776399 1.3005053e-38 312 258
-0.0084686 0.69 -0.021776399 1.3097249e-38 313 258
-0.0072377604 0.68800002 -0.021713281 1.2912859e-38 314 258
-0.0060314666 0.68800002 -0.021713281 1.2635913e-38 315 258
-0.0048251734 0.68800002 -0.021713281 1.2362925e-38 316 258
-0.0036188802 0.68800002 -0.021713281 1.2455122e-38 317 258
-0.0024125867 0.68800002 -0.021713281 1.3373834e-38 318 258
-0.0012097999 0.69 -0.021776399 1.3097249e-38 319 258
0 0.69 -0.021776399 1.3829052e-38 320 258
0.0012097999 0.69 -0.021776399 1.3829052e-38 321 258
0.0024231065 0.69099998 -0.021807959 1.1075057e-38 322 258
0.0036346598 0.69099998 -0.021807959 8.2169942e-39 323 258
0.0048462129 0.69099998 -0.021807959 6.0079144e-39 324 258
0.0060753003 0.69300002 -0.021871079 6.7454795e-39 325 258
0.0072903596 0.69300002 -0.021871079 7.4830473e-39 326 258
0.0085054198 0.69300002 -0.021871079 6.9298735e-39 327 258
0.0097345067 0.69400001 -0.021902639 6.4699688e-39 328 258
0.010982879 0.69599998 -0.021965759 7.6685106e-39 329 258
0.0122032 0.69599998 -0.021965759 1.1527402e-38 330 258
0.013423519 0.69599998 -0.021965759 1.2357521e-38 331 258
0.01466488 0.69700003 -0.02199732 1.1990158e-38 332 258
0.015955333 0.69999999 -0.022091998 1.152918e-38 333 258
0.017207211 0.70099998 -0.022123558 1.2079833e-38 334 258
0.018436298 0.70099998 -0.022123558 1.2264224e-38 335 258
0.019721493 0.70300001 -0.02218668 1.2632637e-38 336 258
0.020983893 0.704 -0.022218239 1.2909225e-38 337 258
0.022281358 0.70599997 -0.022281358 1.3647494e-38 338 258
0.023519212 0.70599997 -0.022281358 1.8810449e-38 339 258
-0.040004052 0.713 -0.023752406 2.2679049e-38 288 259
-0.038753927 0.713 -0.023752406 2.1849288e-38 289 259
-0.037030395 0.704 -0.023452586 1.9353892e-38 290 259
-0.035796054 0.704 -0.023452586 1.6956806e-38 291 259
-0.034512613 0.70300001 -0.023419274 1.713255e-38 292 259
-0.033280019 0.70300001 -0.023419274 1.4366681e-38 293 259
-0.032047424 0.70300001 -0.023419274 1.4069566e-38 294 259
-0.030727165 0.70099998 -0.023352645 1.3239447e-38 295 259
-0.029371841 0.69800001 -0.023252707 1.4333923e-38 296 259
-0.028148014 0.69800001 -0.023252707 1.2214142e-38 297 259
-0.026885614 0.69700003 -0.023219392 1.248967e-38 298 259
-0.025626717 0.69599998 -0.023186078 1.4514745e-38 299 259
-0.0244064 0.69599998 -0.023186078 1.2524624e-38 300 259
-0.023119451 0.69400001 -0.023119451 1.722624e-38 301 259
-0.021871079 0.69300002 -0.02308614 1.530994e-38 302 259
-0.020656019 0.69300002 -0.02308614 1.5771278e-38 303 259
-0.01944096 0.69300002 -0.02308614 1.5404641e-38 304 259
-0.018225901 0.69300002 -0.02308614 1.4298293e-38 305 259
-0.01701084 0.69300002 -0.02308614 6.7490948e-39 306 259
-0.015795778 0.69300002 -0.02308614 2.1393133e-39 307 259
-0.014538639 0.69099998 -0.023019511 2.3316499e-39 308 259
-0.013327086 0.69099998 -0.023019511 4.452148e-39 309 259
-0.012115533 0.69099998 -0.023019511 1.1441336e-38 310 259
-0.010888199 0.69 -0.022986198 1.0888521e-38 311 259
-0.0096783992 0.69 -0.022986198 9.4148199e-39 312 259
-0.0084686 0.69 -0.022986198 9.4148199e-39 313 259
-0.0072377604 0.68800002 -0.022919573 9.5045142e-39 314 259
-0.0060314666 0.68800002 -0.022919573 9.5045142e-39 315 259
-0.0048251734 0.68800002 -0.022919573 8.7712652e-39 316 259
-0.0036188802 0.68800002 -0.022919573 8.9552963e-39 317 259
-0.0024195998 0.69 -0.022986198 9.325155e-39 318 259
-0.0012097999 0.69 -0.022986198 9.325155e-39 319 259
0 0.69 -0.022986198 1.0792357e-38 320 259
0.0012097999 0.69 -0.022986198 1.19909e-38 321 259
0.0024231065 0.69099998 -0.023019511 1.0888868e-38 322 259
0.0036346598 0.69099998 -0.023019511 8.2151949e-39 323 259
0.0048462129 0.69099998 -0.023019511 5.6394976e-39 324 259
0.0060753003 0.69300002 -0.02308614 5.6394976e-39 325 259
0.0072903596 0.69300002 -0.02308614 5.7327723e-39 326 259
0.0085176928 0.69400001 -0.023119451 7.6685218e-39 327 259
0.0097345067 0.69400001 -0.023119451 9.9669119e-39 328 259
0.010982879 0.69599998 -0.023186078 1.0612281e-38 329 259
0.0122032 0.69599998 -0.023186078 1.2541537e-38 330 259
0.013442807 0.69700003 -0.023219392 1.2725928e-38 331 259
0.01468592 0.69800001 -0.023252707 1.2356776e-38 332 259
0.015955333 0.69999999 -0.023319334 1.1618852e-38 333 259
0.017207211 0.70099998 -0.023352645 1.1620654e-38 334 259
0.018436298 0.70099998 -0.023352645 1.189724e-38 335 259
0.019721493 0.70300001 -0.023419274 1.2173814e-38 336 259
0.020983893 0.704 -0.023452586 1.2634433e-38 337 259
0.022281358 0.70599997 -0.023519212 1.4199584e-38 338 259
0.023519212 0.70599997 -0.023519212 1.9454735e-38 339 259
-0.041312039 0.71399999 -0.025037598 2.249466e-38 287 260
-0.040004052 0.713 -0.025002534 2.2679052e-38 288 260
-0.038753927 0.713 -0.025002534 2.1849291e-38 289 260
-0.037503798 0.713 -0.025002534 1.9169508e-38 290 260
-0.035897743 0.70599997 -0.024757065 1.6772061e-38 291 260
-0.034561705 0.704 -0.024686933 1.7412029e-38 292 260
-0.033280019 0.70300001 -0.024651866 1.4830551e-38 293 260
-0.032047424 0.70300001 -0.024651866 1.4632818e-38 294 260
-0.030727165 0.70099998 -0.024581732 1.2880741e-38 295 260
-0.029455997 0.69999999 -0.024546666 1.4060929e-38 296 260
-0.028148014 0.69800001 -0.024476532 1.4522267e-38 297 260
-0.026885614 0.69700003 -0.024441468 1.4428289e-38 298 260
-0.025663542 0.69700003 -0.024441468 1.2492181e-38 299 260
-0.0244064 0.69599998 -0.0244064 1.2688133e-38 300 260
-0.023119451 0.69400001 -0.024336265 1.7021326e-38 301 260
-0.021871079 0.69300002 -0.024301201 1.4387257e-38 302 260
-0.020656019 0.69300002 -0.024301201 1.6139335e-38 303 260
-0.019469013 0.69400001 -0.024336265 1.5773069e-38 304 260
-0.018225901 0.69300002 -0.024301201 1.4851114e-38 305 260
-0.01701084 0.69300002 -0.024301201 1.2085246e-38 306 260
-0.015795778 0.69300002 -0.024301201 1.1808301e-38 307 260
-0.014538639 0.69099998 -0.024231065 9.4169877e-39 308 260
-0.013327086 0.69099998 -0.024231065 8.31028e-39 309 260
-0.012115533 0.69099998 -0.024231065 9.4155528e-39 310 260
-0.01090398 0.69099998 -0.024231065 9.2315217e-39 311 260
-0.0096783992 0.69 -0.024195999 8.5850691e-39 312 260
-0.0084686 0.69 -0.024195999 8.5850691e-39 313 260
-0.0072587994 0.69 -0.024195999 9.5952651e-39 314 260
-0.0060489997 0.69 -0.024195999 9.5952651e-39 315 260
-0.0048391996 0.69 -0.024195999 8.5839971e-39 316 260
-0.0036293997 0.69 -0.024195999 7.6620408e-39 317 260
-0.0024231065 0.69099998 -0.024231065 4.8198207e-39 318 260
-0.0012115532 0.69099998 -0.024231065 5.1886018e-39 319 260
0 0.69 -0.024195999 1.0601871e-38 320 260
0.0012097999 0.69 -0.024195999 1.3828717e-38 321 260
0.0024231065 0.69099998 -0.024231065 1.3466383e-38 322 260
0.0036346598 0.69099998 -0.024231065 1.2913209e-38 323 260
0.0048462129 0.69099998 -0.024231065 1.2085611e-38 324 260
0.0060753003 0.69300002 -0.024301201 1.1809383e-38 325 260
0.0072903596 0.69300002 -0.024301201 1.2084528e-38 326 260
0.0085176928 0.69400001 -0.024336265 1.2360756e-38 327 260
0.0097345067 0.69400001 -0.024336265 1.2818846e-38 328 260
0.010982879 0.69599998 -0.0244064 1.272665e-38 329 260
0.0122032 0.69599998 -0.0244064 1.2451853e-38 330 260
0.013442807 0.69700003 -0.024441468 1.2267822e-38 331 260
0.014727999 0.69999999 -0.024546666 1.1990514e-38 332 260
0.015978126 0.70099998 -0.024581732 1.1345145e-38 333 260
0.017207211 0.70099998 -0.024581732 1.0977086e-38 334 260
0.018488899 0.70300001 -0.024651866 1.1253312e-38 335 260
0.019749546 0.704 -0.024686933 1.189759e-38 336 260
0.020983893 0.704 -0.024686933 1.2911743e-38 337 260
0.022281358 0.70599997 -0.024757065 1.5212299e-38 338 260
0.023519212 0.70599997 -0.024757065 1.9914276e-38 339 260
-0.041312039 0.71399999 -0.026289478 2.25865e-38 287 261
-0.040060159 0.71399999 -0.026289478 2.2679052e-38 288 261
-0.038753927 0.713 -0.026252659 2.1849291e-38 289 261
-0.037345998 0.70999998 -0.026142199 1.8617772e-38 290 261
-0.035897743 0.70599997 -0.025994917 1.5944099e-38 291 261
-0.034561705 0.704 -0.02592128 1.7136534e-38 292 261
-0.03332736 0.704 -0.02592128 1.5568849e-38 293 261
-0.032047424 0.70300001 -0.025884461 1.5658138e-38 294 261
-0.030814834 0.70300001 -0.025884461 1.3906422e-38 295 261
-0.029498078 0.70099998 -0.025810819 1.4625255e-38 296 261
-0.028148014 0.69800001 -0.025700359 1.3611103e-38 297 261
-0.026924185 0.69800001 -0.025700359 1.4432582e-38 298 261
-0.025663542 0.69700003 -0.025663542 1.2219887e-38 299 261
-0.0244064 0.69599998 -0.025626717 1.3775376e-38 300 261
-0.023119451 0.69400001 -0.025553079 1.9768092e-38 301 261
-0.021871079 0.69300002 -0.02551626 1.5301275e-38 302 261
-0.020656019 0.69300002 -0.02551626 1.7974949e-38 303 261
-0.019469013 0.69400001 -0.025553079 1.5496486e-38 304 261
-0.018225901 0.69300002 -0.02551626 1.4851117e-38 305 261
-0.01701084 0.69300002 -0.02551626 1.153639e-38 306 261
-0.015795778 0.69300002 -0.02551626 1.2273955e-38 307 261
-0.014580719 0.69300002 -0.02551626 1.1626791e-38 308 261
-0.013327086 0.69099998 -0.025442619 1.1349844e-38 309 261
-0.012115533 0.69099998 -0.025442619 1.1626437e-38 310 261
-0.01090398 0.69099998 -0.025442619 1.153424e-38 311 261
-0.0096924258 0.69099998 -0.025442619 1.0888871e-38 312 261
-0.008480873 0.69099998 -0.025442619 1.1442045e-38 313 261
-0.0072693196 0.69099998 -0.025442619 1.2910692e-38 314 261
-0.0060577663 0.69099998 -0.025442619 1.2725941e-38 315 261
-0.0048462129 0.69099998 -0.025442619 1.2267124e-38 316 261
-0.0036346598 0.69099998 -0.025442619 1.15292e-38 317 261
-0.0024231065 0.69099998 -0.025442619 1.0243151e-38 318 261
-0.0012115532 0.69099998 -0.025442619 1.0243151e-38 319 261
0 0.69099998 -0.025442619 1.042826e-38 320 261
0.0012115532 0.69099998 -0.025442619 1.1534608e-38 321 261
0.0024231065 0.69099998 -0.025442619 1.0891389e-38 322 261
0.0036451798 0.69300002 -0.02551626 1.1536759e-38 323 261
0.00486024 0.69300002 -0.02551626 1.1995216e-38 324 261
0.0060753003 0.69300002 -0.02551626 1.1995216e-38 325 261
0.0073008798 0.69400001 -0.025553079 1.2637696e-38 326 261
0.0085176928 0.69400001 -0.025553079 1.2268912e-38 327 261
0.0097625591 0.69599998 -0.025626717 1.2451853e-38 328 261
0.010982879 0.69599998 -0.025626717 1.2451853e-38 329 261
0.012220734 0.69700003 -0.025663542 1.2266745e-38 330 261
0.013442807 0.69700003 -0.025663542 1.1897963e-38 331 261
0.014727999 0.69999999 -0.025773998 1.1807922e-38 332 261
0.015978126 0.70099998 -0.025810819 1.1623171e-38 333 261
0.017256306 0.70300001 -0.025884461 1.1897234e-38 334 261
0.018488899 0.70300001 -0.025884461 1.2081984e-38 335 261
0.019749546 0.704 -0.02592128 1.2541519e-38 336 261
0.021043506 0.70599997 -0.025994917 1.3094691e-38 337 261
0.022344479 0.708 -0.026068559 1.4293585e-38 338 261
0.023585839 0.708 -0.026068559 1.9087758e-38 339 261
-0.041254178 0.713 -0.027502786 2.249466e-38 287 262
-0.040004052 0.713 -0.027502786 2.2679772e-38 288 262
-0.038645219 0.71100003 -0.027425639 2.1850371e-38 289 262
-0.037345998 0.70999998 -0.027387066 1.8250063e-38 290 262
-0.03599944 0.708 -0.027309919 1.5023216e-38 291 262
-0.034561705 0.704 -0.027155625 1.6583714e-38 292 262
-0.03332736 0.704 -0.027155625 1.5938345e-38 293 262
-0.032093015 0.704 -0.027155625 1.6766673e-38 294 262
-0.030814834 0.70300001 -0.027117053 1.6305695e-38 295 262
-0.029582238 0.70300001 -0.027117053 1.6392479e-38 296 262
-0.028228667 0.69999999 -0.027001332 1.4548568e-38 297 262
-0.026924185 0.69800001 -0.026924185 1.518132e-38 298 262
-0.025663542 0.69700003 -0.026885614 1.1032515e-38 299 262
-0.024441468 0.69700003 -0.026885614 1.3965888e-38 300 262
-0.023186078 0.69599998 -0.026847038 1.9221039e-38 301 262
-0.021902639 0.69400001 -0.026769891 1.5853728e-38 302 262
-0.020685827 0.69400001 -0.026769891 1.834301e-38 303 262
-0.019469013 0.69400001 -0.026769891 1.5220973e-38 304 262
-0.018225901 0.69300002 -0.02673132 1.4575603e-38 305 262
-0.01701084 0.69300002 -0.02673132 1.0708077e-38 306 262
-0.015795778 0.69300002 -0.02673132 9.8779575e-39 307 262
-0.014580719 0.69300002 -0.02673132 1.1073632e-38 308 262
-0.01336566 0.69300002 -0.02673132 1.153461e-38 309 262
-0.012150601 0.69300002 -0.02673132 1.208526e-38 310 262
-0.01090398 0.69099998 -0.026654173 1.2269652e-38 311 262
-0.0096924258 0.69099998 -0.026654173 1.2545869e-38 312 262
-0.008480873 0.69099998 -0.026654173 1.2545869e-38 313 262
-0.0072693196 0.69099998 -0.026654173 1.3278752e-38 314 262
-0.0060577663 0.69099998 -0.026654173 1.3094002e-38 315 262
-0.0048462129 0.69099998 -0.026654173 1.2819942e-38 316 262
-0.0036346598 0.69099998 -0.026654173 1.2912137e-38 317 262
-0.0024231065 0.69099998 -0.026654173 1.2357166e-38 318 262
-0.0012115532 0.69099998 -0.026654173 1.1343012e-38 319 262
0 0.69099998 -0.026654173 1.0794875e-38 320 262
0.00121506 0.69300002 -0.02673132 1.0149505e-38 321 262
0.00243012 0.69300002 -0.02673132 7.3958711e-39 322 262
0.0036451798 0.69300002 -0.02673132 9.424175e-39 323 262
0.00486024 0.69300002 -0.02673132 1.107578e-38 324 262
0.0060840664 0.69400001 -0.026769891 1.1167977e-38 325 262
0.0073008798 0.69400001 -0.026769891 1.1902654e-38 326 262
0.0085176928 0.69400001 -0.026769891 1.1810099e-38 327 262
0.0097625591 0.69599998 -0.026847038 1.2450783e-38 328 262
0.01099866 0.69700003 -0.026885614 1.2358588e-38 329 262
0.012238266 0.69800001 -0.026924185 1.1989082e-38 330 262
0.013462093 0.69800001 -0.026924185 1.1896887e-38 331 262
0.014727999 0.69999999 -0.027001332 1.1901203e-38 332 262
0.015978126 0.70099998 -0.027039904 1.2085594e-38 333 262
0.017256306 0.70300001 -0.027117053 1.2084149e-38 334 262
0.018515198 0.704 -0.027155625 1.2084149e-38 335 262
0.019805651 0.70599997 -0.027232772 1.3278006e-38 336 262
0.021043506 0.70599997 -0.027232772 1.3370203e-38 337 262
0.022344479 0.708 -0.027309919 1.3648934e-38 338 262
0.023752406 0.713 -0.027502786 1.8720054e-38 339 262
0.025002534 0.713 -0.027502786 2.2309194e-38 340 262
-0.041254178 0.713 -0.028752912 2.2586856e-38 287 263
-0.040004052 0.713 -0.028752912 2.2679769e-38 288 263
-0.038645219 0.71100003 -0.028672259 2.1850367e-38 289 263
-0.037345998 0.70999998 -0.028631933 1.843481e-38 290 263
-0.03599944 0.708 -0.02855128 1.5023572e-38 291 263
-0.034561705 0.704 -0.028389972 1.5471968e-38 292 263
-0.03332736 0.704 -0.028389972 1.5564165e-38 293 263
-0.032093015 0.704 -0.028389972 1.6486495e-38 294 263
-0.030814834 0.70300001 -0.028349647 1.7316257e-38 295 263
-0.029582238 0.70300001 -0.028349647 1.685707e-38 296 263
-0.028268991 0.70099998 -0.028268991 1.5566331e-38 297 263
-0.027001332 0.69999999 -0.028228667 1.5927891e-38 298 263
-0.025700359 0.69800001 -0.028148014 1.0027371e-38 299 263
-0.024441468 0.69700003 -0.028107686 1.3964456e-38 300 263
-0.023186078 0.69599998 -0.028067358 1.9219607e-38 301 263
-0.021902639 0.69400001 -0.027986705 1.6037043e-38 302 263
-0.020685827 0.69400001 -0.027986705 1.8525966e-38 303 263
-0.019469013 0.69400001 -0.027986705 1.5405007e-38 304 263
-0.0182522 0.69400001 -0.027986705 1.4759637e-38 305 263
-0.017035386 0.69400001 -0.027986705 1.2272159e-38 306 263
-0.015818574 0.69400001 -0.027986705 1.1257648e-38 307 263
-0.014580719 0.69300002 -0.027946379 1.1901229e-38 308 263
-0.01336566 0.69300002 -0.027946379 1.2269652e-38 309 263
-0.012150601 0.69300002 -0.027946379 1.2912503e-38 310 263
-0.010935539 0.69300002 -0.027946379 1.2912503e-38 311 263
-0.0096924258 0.69099998 -0.027865725 1.2637345e-38 312 263
-0.008480873 0.69099998 -0.027865725 1.254515e-38 313 263
-0.0072903596 0.69300002 -0.027946379 1.3002891e-38 314 263
-0.0060753003 0.69300002 -0.027946379 1.2725944e-38 315 263
-0.0048462129 0.69099998 -0.027865725 1.1623919e-38 316 263
-0.0036346598 0.69099998 -0.027865725 1.1992342e-38 317 263
-0.00243012 0.69300002 -0.027946379 1.2633029e-38 318 263
-0.00121506 0.69300002 -0.027946379 1.1434486e-38 319 263
0 0.69300002 -0.027946379 1.09789e-38 320 263
0.00121506 0.69300002 -0.027946379 1.0886705e-38 321 263
0.00243012 0.69300002 -0.027946379 9.8775945e-39 322 263
0.0036504399 0.69400001 -0.027986705 1.0522964e-38 323 263
0.0048672534 0.69400001 -0.027986705 1.0983582e-38 324 263
0.0060840664 0.69400001 -0.027986705 1.1168333e-38 325 263
0.0073008798 0.69400001 -0.027986705 1.1901934e-38 326 263
0.0085422397 0.69599998 -0.028067358 1.180938e-38 327 263
0.0097625591 0.69599998 -0.028067358 1.2451505e-38 328 263
0.01099866 0.69700003 -0.028107686 1.2267474e-38 329 263
0.012238266 0.69800001 -0.028148014 1.1622458e-38 330 263
0.013500666 0.69999999 -0.028228667 1.1437708e-38 331 263
0.014749039 0.70099998 -0.028268991 1.1623177e-38 332 263
0.016023712 0.70300001 -0.028349647 1.2175992e-38 333 263
0.017280852 0.704 -0.028389972 1.2451137e-38 334 263
0.018515198 0.704 -0.028389972 1.2451137e-38 335 263
0.019805651 0.70599997 -0.028470624 1.3094341e-38 336 263
0.021043506 0.70599997 -0.028470624 1.3370569e-38 337 263
0.022344479 0.708 -0.02855128 1.4291787e-38 338 263
0.023652466 0.70999998 -0.028631933 1.9546938e-38 339 263
0.024897331 0.70999998 -0.028631933 2.240139e-38 340 263
-0.041254178 0.713 -0.030003037 2.2586856e-38 287 264
-0.040004052 0.713 -0.030003037 2.2679049e-38 288 264
-0.038645219 0.71100003 -0.029918881 2.1757092e-38 289 264
-0.037345998 0.70999998 -0.029876797 1.8803237e-38 290 264
-0.03599944 0.708 -0.02979264 1.576114e-38 291 264
-0.034561705 0.704 -0.029624319 1.4640039e-38 292 264
-0.03332736 0.704 -0.029624319 1.3441497e-38 293 264
-0.032093015 0.704 -0.029624319 1.583716e-38 294 264
-0.030858666 0.704 -0.029624319 1.7404487e-38 295 264
-0.029582238 0.70300001 -0.029582238 1.6487941e-38 296 264
-0.028349647 0.70300001 -0.029582238 1.6303549e-38 297 264
-0.027001332 0.69999999 -0.029455997 1.6120208e-38 298 264
-0.025700359 0.69800001 -0.029371841 9.1133404e-39 299 264
-0.024476532 0.69800001 -0.029371841 1.3870468e-38 300 264
-0.023219392 0.69700003 -0.02932976 1.9401846e-38 301 264
-0.021965759 0.69599998 -0.029287677 1.6037043e-38 302 264
-0.020745439 0.69599998 -0.029287677 1.861852e-38 303 264
-0.019553173 0.69700003 -0.02932976 1.5773069e-38 304 264
-0.018304799 0.69599998 -0.029287677 1.5127699e-38 305 264
-0.017035386 0.69400001 -0.029203519 1.3100124e-38 306 264
-0.015818574 0.69400001 -0.029203519 1.2915374e-38 307 264
-0.01460176 0.69400001 -0.029203519 1.273026e-38 308 264
-0.013384946 0.69400001 -0.029203519 1.2822457e-38 309 264
-0.012168133 0.69400001 -0.029203519 1.3833368e-38 310 264
-0.010935539 0.69300002 -0.029161438 1.3833368e-38 311 264
-0.0097204801 0.69300002 -0.029161438 1.3281989e-38 312 264
-0.0085054198 0.69300002 -0.029161438 1.3097958e-38 313 264
-0.0072903596 0.69300002 -0.029161438 1.3188717e-38 314 264
-0.0060753003 0.69300002 -0.029161438 1.291249e-38 315 264
-0.00486024 0.69300002 -0.029161438 1.1715386e-38 316 264
-0.0036451798 0.69300002 -0.029161438 1.1162212e-38 317 264
-0.00243012 0.69300002 -0.029161438 1.2080925e-38 318 264
-0.00121506 0.69300002 -0.029161438 1.2080925e-38 319 264
0 0.69300002 -0.029161438 1.1345525e-38 320 264
0.0012168133 0.69400001 -0.029203519 1.0884905e-38 321 264
0.0024336267 0.69400001 -0.029203519 9.5999314e-39 322 264
0.0036504399 0.69400001 -0.029203519 1.0798475e-38 323 264
0.0048672534 0.69400001 -0.029203519 1.2454755e-38 324 264
0.0060840664 0.69400001 -0.029203519 1.2085614e-38 325 264
0.0073219193 0.69599998 -0.029287677 1.180938e-38 326 264
0.0085422397 0.69599998 -0.029287677 1.180938e-38 327 264
0.0097765867 0.69700003 -0.02932976 1.2268909e-38 328 264
0.01101444 0.69800001 -0.029371841 1.2268909e-38 329 264
0.012238266 0.69800001 -0.029371841 1.1990514e-38 330 264
0.013500666 0.69999999 -0.029455997 1.1621373e-38 331 264
0.014749039 0.70099998 -0.029498078 1.1713572e-38 332 264
0.016023712 0.70300001 -0.029582238 1.2266745e-38 333 264
0.017280852 0.704 -0.029624319 1.2175276e-38 334 264
0.018567799 0.70599997 -0.029708479 1.2267471e-38 335 264
0.019833706 0.70700002 -0.029750559 1.3094341e-38 336 264
0.021073313 0.70700002 -0.029750559 1.3462765e-38 337 264
0.022344479 0.708 -0.02979264 1.4659844e-38 338 264
0.023652466 0.70999998 -0.029876797 1.9730963e-38 339 264
0.024897331 0.70999998 -0.029876797 2.2401387e-38 340 264
-0.040004052 0.713 -0.031253166 2.2679052e-38 288 265
-0.038645219 0.71100003 -0.031165501 2.148051e-38 289 265
-0.037345998 0.70999998 -0.031121666 1.8804318e-38 290 265
-0.03599944 0.708 -0.031034 1.6130645e-38 291 265
-0.034758076 0.708 -0.031034 1.5472671e-38 292 265
-0.033469379 0.70700002 -0.030990168 1.3075586e-38 293 265
-0.032093015 0.704 -0.030858666 1.4992638e-38 294 265
-0.030858666 0.704 -0.030858666 1.6283377e-38 295 265
-0.029624319 0.704 -0.030858666 1.5096368e-38 296 265
-0.028349647 0.70300001 -0.030814834 1.6664054e-38 297 265
-0.027039904 0.70099998 -0.030727165 1.5932227e-38 298 265
-0.025773998 0.69999999 -0.030683333 1.0216098e-38 299 265
-0.024476532 0.69800001 -0.030595668 1.4146698e-38 300 265
-0.023219392 0.69700003 -0.030551834 1.9309653e-38 301 265
-0.02199732 0.69700003 -0.030551834 1.6036321e-38 302 265
-0.020775247 0.69700003 -0.030551834 1.880183e-38 303 265
-0.019553173 0.69700003 -0.030551834 1.5497558e-38 304 265
-0.018304799 0.69599998 -0.030507999 1.4852189e-38 305 265
-0.017084479 0.69599998 -0.030507999 1.2455471e-38 306 265
-0.015864158 0.69599998 -0.030507999 1.2179244e-38 307 265
-0.01460176 0.69400001 -0.030420333 1.2637348e-38 308 265
-0.013384946 0.69400001 -0.030420333 1.2637348e-38 309 265
-0.012168133 0.69400001 -0.030420333 1.3373468e-38 310 265
-0.01095132 0.69400001 -0.030420333 1.355786e-38 311 265
-0.0097345067 0.69400001 -0.030420333 1.3374187e-38 312 265
-0.0085054198 0.69300002 -0.0303765 1.3281633e-38 313 265
-0.0072903596 0.69300002 -0.0303765 1.3098321e-38 314 265
-0.0060840664 0.69400001 -0.030420333 1.3098321e-38 315 265
-0.00486024 0.69300002 -0.0303765 1.263518e-38 316 265
-0.0036451798 0.69300002 -0.0303765 1.1712865e-38 317 265
-0.00243012 0.69300002 -0.0303765 1.1439155e-38 318 265
-0.00121506 0.69300002 -0.0303765 1.1623186e-38 319 265
0 0.69400001 -0.030420333 1.0611197e-38 320 265
0.0012168133 0.69400001 -0.030420333 1.0611197e-38 321 265
0.0024336267 0.69400001 -0.030420333 1.1717903e-38 322 265
0.0036504399 0.69400001 -0.030420333 1.199485e-38 323 265
0.0048672534 0.69400001 -0.030420333 1.2361835e-38 324 265
0.0061015999 0.69599998 -0.030507999 1.1993051e-38 325 265
0.00733244 0.69700003 -0.030551834 1.1991976e-38 326 265
0.0085545136 0.69700003 -0.030551834 1.1991976e-38 327 265
0.0097906133 0.69800001 -0.030595668 1.2543701e-38 328 265
0.01101444 0.69800001 -0.030595668 1.2451505e-38 329 265
0.012273333 0.69999999 -0.030683333 1.2267824e-38 330 265
0.013519952 0.70099998 -0.030727165 1.2083433e-38 331 265
0.014812159 0.704 -0.030858666 1.1713572e-38 332 265
0.016046507 0.704 -0.030858666 1.2266745e-38 333 265
0.017329946 0.70599997 -0.030946331 1.2358225e-38 334 265
0.018567799 0.70599997 -0.030946331 1.2634452e-38 335 265
0.01986176 0.708 -0.031034 1.3002145e-38 336 265
0.021103119 0.708 -0.031034 1.3924103e-38 337 265
0.022407599 0.70999998 -0.031121666 1.5120829e-38 338 265
0.023752406 0.713 -0.031253166 1.973061e-38 339 265
0.025002534 0.713 -0.031253166 2.2218078e-38 340 265
-0.038645219 0.71100003 -0.032412119 2.138903e-38 289 266
-0.037345998 0.70999998 -0.032366529 1.9447889e-38 290 266
-0.03599944 0.708 -0.03227536 1.7050804e-38 291 266
-0.034758076 0.708 -0.03227536 1.5752499e-38 292 266
-0.033469379 0.70700002 -0.032229774 1.3078826e-38 293 266
-0.032093015 0.704 -0.032093015 1.379729e-38 294 266
-0.030858666 0.704 -0.032093015 1.2045573e-38 295 266
-0.029624319 0.704 -0.032093015 1.3334189e-38 296 266
-0.028349647 0.70300001 -0.032047424 1.5270297e-38 297 266
-0.027039904 0.70099998 -0.031956252 1.537115e-38 298 266
-0.025773998 0.69999999 -0.031910665 1.1775161e-38 299 266
-0.024476532 0.69800001 -0.031819493 1.4148853e-38 300 266
-0.023252707 0.69800001 -0.031819493 1.866608e-38 301 266
-0.02202888 0.69800001 -0.031819493 1.5944844e-38 302 266
-0.020805053 0.69800001 -0.031819493 1.8710713e-38 303 266
-0.019581227 0.69800001 -0.031819493 1.57727e-38 304 266
-0.018331099 0.69700003 -0.03177391 1.5219526e-38 305 266
-0.017109027 0.69700003 -0.03177391 1.1995216e-38 306 266
-0.015864158 0.69599998 -0.031728316 1.1257651e-38 307 266
-0.014643839 0.69599998 -0.031728316 1.2452604e-38 308 266
-0.013423519 0.69599998 -0.031728316 1.2360408e-38 309 266
-0.012168133 0.69400001 -0.031637147 1.3280917e-38 310 266
-0.01095132 0.69400001 -0.031637147 1.3280917e-38 311 266
-0.0097345067 0.69400001 -0.031637147 1.2545869e-38 312 266
-0.0085176928 0.69400001 -0.031637147 1.273026e-38 313 266
-0.0073008798 0.69400001 -0.031637147 1.2913572e-38 314 266
-0.0060840664 0.69400001 -0.031637147 1.3098324e-38 315 266
-0.0048672534 0.69400001 -0.031637147 1.3006128e-38 316 266
-0.0036504399 0.69400001 -0.031637147 1.2360758e-38 317 266
-0.0024336267 0.69400001 -0.031637147 1.2361837e-38 318 266
-0.0012168133 0.69400001 -0.031637147 1.2269642e-38 319 266
0 0.69599998 -0.031728316 1.0978897e-38 320 266
0.0012203199 0.69599998 -0.031728316 1.1624267e-38 321 266
0.0024406398 0.69599998 -0.031728316 1.3191223e-38 322 266
0.0036609597 0.69599998 -0.031728316 1.2730244e-38 323 266
0.0048812795 0.69599998 -0.031728316 1.0796657e-38 324 266
0.0061103669 0.69700003 -0.03177391 1.1165438e-38 325 266
0.00733244 0.69700003 -0.03177391 1.2083093e-38 326 266
0.0085545136 0.69700003 -0.03177391 1.2175288e-38 327 266
0.0097906133 0.69800001 -0.031819493 1.2175997e-38 328 266
0.011045999 0.69999999 -0.031910665 1.2175997e-38 329 266
0.012273333 0.69999999 -0.031910665 1.3003957e-38 330 266
0.013558527 0.70300001 -0.032047424 1.2635533e-38 331 266
0.014812159 0.704 -0.032093015 1.2450774e-38 332 266
0.016092092 0.70599997 -0.032184184 1.2634805e-38 333 266
0.017329946 0.70599997 -0.032184184 1.2267822e-38 334 266
0.018594101 0.70700002 -0.032229774 1.2267822e-38 335 266
0.01986176 0.708 -0.03227536 1.318726e-38 336 266
0.021162732 0.70999998 -0.032366529 1.3924825e-38 337 266
0.022407599 0.70999998 -0.032366529 1.4938957e-38 338 266
0.023752406 0.713 -0.032503292 1.9363989e-38 339 266
0.025107734 0.71600002 -0.032640055 2.2401393e-38 340 266
-0.038645219 0.71100003 -0.033658739 2.1850371e-38 289 267
-0.037345998 0.70999998 -0.033611398 2.0002506e-38 290 267
-0.03599944 0.708 -0.033516716 1.8158593e-38 291 267
-0.034758076 0.708 -0.033516716 1.5663213e-38 292 267
-0.033469379 0.70700002 -0.033469379 1.4372474e-38 293 267
-0.032184184 0.70599997 -0.033422034 1.6212054e-38 294 267
-0.030946331 0.70599997 -0.033422034 1.3999719e-38 295 267
-0.029624319 0.704 -0.03332736 1.3981e-38 296 267
-0.028349647 0.70300001 -0.033280019 1.3612217e-38 297 267
-0.027039904 0.70099998 -0.03318534 1.4157835e-38 298 267
-0.025773998 0.69999999 -0.033137999 1.3143682e-38 299 267
-0.024546666 0.69999999 -0.033137999 1.4241765e-38 300 267
-0.023252707 0.69800001 -0.033043321 1.8298373e-38 301 267
-0.02202888 0.69800001 -0.033043321 1.5852647e-38 302 267
-0.020805053 0.69800001 -0.033043321 1.8710713e-38 303 267
-0.019581227 0.69800001 -0.033043321 1.5589035e-38 304 267
-0.018331099 0.69700003 -0.03299598 1.5127697e-38 305 267
-0.017109027 0.69700003 -0.03299598 1.1996295e-38 306 267
-0.015886955 0.69700003 -0.03299598 1.1719708e-38 307 267
-0.014643839 0.69599998 -0.032948639 1.2362206e-38 308 267
-0.013423519 0.69599998 -0.032948639 1.2362206e-38 309 267
-0.0122032 0.69599998 -0.032948639 1.2730267e-38 310 267
-0.010982879 0.69599998 -0.032948639 1.2177093e-38 311 267
-0.0097345067 0.69400001 -0.032853961 1.2450802e-38 312 267
-0.0085176928 0.69400001 -0.032853961 1.3096171e-38 313 267
-0.0073008798 0.69400001 -0.032853961 1.2729911e-38 314 267
-0.0060840664 0.69400001 -0.032853961 1.2637714e-38 315 267
-0.0048812795 0.69599998 -0.032948639 1.2730267e-38 316 267
-0.0036504399 0.69400001 -0.032853961 1.2730267e-38 317 267
-0.0024336267 0.69400001 -0.032853961 1.2732062e-38 318 267
-0.0012220733 0.69700003 -0.03299598 1.2455475e-38 319 267
0 0.69700003 -0.03299598 1.2083449e-38 320 267
0.0012220733 0.69700003 -0.03299598 1.2360035e-38 321 267
0.0024441467 0.69700003 -0.03299598 1.1994847e-38 322 267
0.00366622 0.69700003 -0.03299598 1.1810455e-38 323 267
0.0048882933 0.69700003 -0.03299598 1.2267837e-38 324 267
0.0061103669 0.69700003 -0.03299598 1.2267837e-38 325 267
0.0073429602 0.69800001 -0.033043321 1.1533875e-38 326 267
0.0085667865 0.69800001 -0.033043321 1.1717906e-38 327 267
0.0097906133 0.69800001 -0.033043321 1.2268559e-38 328 267
0.011045999 0.69999999 -0.033137999 1.2268559e-38 329 267
0.012290866 0.70099998 -0.03318534 1.2636254e-38 330 267
0.013558527 0.70300001 -0.033280019 1.2636254e-38 331 267
0.014812159 0.704 -0.03332736 1.2452936e-38 332 267
0.016092092 0.70599997 -0.033422034 1.2360739e-38 333 267
0.017354494 0.70700002 -0.033469379 1.1993035e-38 334 267
0.018672999 0.70999998 -0.033611398 1.2453655e-38 335 267
0.01994592 0.71100003 -0.033658739 1.3925544e-38 336 267
0.021192541 0.71100003 -0.033658739 1.3741154e-38 337 267
0.022502279 0.713 -0.033753417 1.44769e-38 338 267
0.02378572 0.71399999 -0.033800758 1.936327e-38 339 267
0.025107734 0.71600002 -0.03389544 2.2401393e-38 340 267
0.026363119 0.71600002 -0.03389544 2.1848219e-38 341 267
-0.037345998 0.70999998 -0.034856264 1.9544773e-38 290 268
-0.036101133 0.70999998 -0.034856264 1.7793056e-38 291 268
-0.034758076 0.708 -0.034758076 1.5947738e-38 292 268
-0.033516716 0.708 -0.034758076 1.4564803e-38 293 268
-0.032229774 0.70700002 -0.034708988 1.6498747e-38 294 268
-0.030946331 0.70599997 -0.034659892 1.5761182e-38 295 268
-0.029624319 0.704 -0.034561705 1.4371015e-38 296 268
-0.028389972 0.704 -0.034561705 1.1881733e-38 297 268
-0.027039904 0.70099998 -0.034414422 1.3335978e-38 298 268
-0.025773998 0.69999999 -0.034365334 1.1123642e-38 299 268
-0.024546666 0.69999999 -0.034365334 1.3415233e-38 300 268
-0.023252707 0.69800001 -0.034267146 1.7748426e-38 301 268
-0.02202888 0.69800001 -0.034267146 1.5944121e-38 302 268
-0.020805053 0.69800001 -0.034267146 1.8986577e-38 303 268
-0.019581227 0.69800001 -0.034267146 1.5865264e-38 304 268
-0.0183574 0.69800001 -0.034267146 1.5404288e-38 305 268
-0.017133573 0.69800001 -0.034267146 1.2915377e-38 306 268
-0.015909746 0.69800001 -0.034267146 1.2730986e-38 307 268
-0.01466488 0.69700003 -0.034218054 1.2545162e-38 308 268
-0.013442807 0.69700003 -0.034218054 1.2361131e-38 309 268
-0.0122032 0.69599998 -0.034168959 1.2178891e-38 310 268
-0.010982879 0.69599998 -0.034168959 1.2178891e-38 311 268
-0.0097625591 0.69599998 -0.034168959 1.1903746e-38 312 268
-0.0085422397 0.69599998 -0.034168959 1.181155e-38 313 268
-0.0073219193 0.69599998 -0.034168959 1.2178541e-38 314 268
-0.0061103669 0.69700003 -0.034218054 1.2362572e-38 315 268
-0.0048882933 0.69700003 -0.034218054 1.1903746e-38 316 268
-0.00366622 0.69700003 -0.034218054 1.181155e-38 317 268
-0.0024441467 0.69700003 -0.034218054 1.2546596e-38 318 268
-0.0012220733 0.69700003 -0.034218054 1.2454399e-38 319 268
0 0.69700003 -0.034218054 1.2360035e-38 320 268
0.0012220733 0.69700003 -0.034218054 1.2636264e-38 321 268
0.0024441467 0.69700003 -0.034218054 1.2177441e-38 322 268
0.00366622 0.69700003 -0.034218054 1.2177441e-38 323 268
0.0048882933 0.69700003 -0.034218054 1.2085611e-38 324 268
0.006119133 0.69800001 -0.034267146 1.190158e-38 325 268
0.0073429602 0.69800001 -0.034267146 1.2084174e-38 326 268
0.0085667865 0.69800001 -0.034267146 1.2084174e-38 327 268
0.0098186666 0.69999999 -0.034365334 1.1901934e-38 328 268
0.011045999 0.69999999 -0.034365334 1.2085967e-38 329 268
0.012290866 0.70099998 -0.034414422 1.2452586e-38 330 268
0.013577812 0.704 -0.034561705 1.2360389e-38 331 268
0.014812159 0.704 -0.034561705 1.291104e-38 332 268
0.016114887 0.70700002 -0.034708988 1.291104e-38 333 268
0.017354494 0.70700002 -0.034708988 1.3463844e-38 334 268
0.018672999 0.70999998 -0.034856264 1.3648234e-38 335 268
0.01994592 0.71100003 -0.034905359 1.3281971e-38 336 268
0.021252153 0.713 -0.035003547 1.3189774e-38 337 268
0.022502279 0.713 -0.035003547 1.4566579e-38 338 268
0.02378572 0.71399999 -0.035052639 2.0006121e-38 339 268
0.025107734 0.71600002 -0.035150826 2.2401387e-38 340 268
0.026363119 0.71600002 -0.035150826 2.2124799e-38 341 268
-0.037398599 0.71100003 -0.036151983 1.9177427e-38 290 269
-0.036101133 0.70999998 -0.036101133 1.6872895e-38 291 269
-0.034856264 0.70999998 -0.036101133 1.6230059e-38 292 269
-0.033516716 0.708 -0.03599944 1.6507006e-38 293 269
-0.032229774 0.70700002 -0.035948593 1.6689965e-38 294 269
-0.030990168 0.70700002 -0.035948593 1.6044596e-38 295 269
-0.029708479 0.70599997 -0.035897743 1.6133554e-38 296 269
-0.028389972 0.704 -0.035796054 1.6041359e-38 297 269
-0.027117053 0.70300001 -0.035745207 1.6033764e-38 298 269
-0.025773998 0.69999999 -0.035592664 1.0870808e-38 299 269
-0.024546666 0.69999999 -0.035592664 1.1224817e-38 300 269
-0.023319334 0.69999999 -0.035592664 1.3345316e-38 301 269
-0.02202888 0.69800001 -0.035490975 1.576043e-38 302 269
-0.020805053 0.69800001 -0.035490975 1.8895082e-38 303 269
-0.019581227 0.69800001 -0.035490975 1.5865264e-38 304 269
-0.0183574 0.69800001 -0.035490975 1.5404288e-38 305 269
-0.017133573 0.69800001 -0.035490975 1.300757e-38 306 269
-0.015909746 0.69800001 -0.035490975 1.2915374e-38 307 269
-0.01466488 0.69700003 -0.035440128 1.2454766e-38 308 269
-0.013442807 0.69700003 -0.035440128 1.2362569e-38 309 269
-0.012220734 0.69700003 -0.035440128 1.2364368e-38 310 269
-0.010982879 0.69599998 -0.035389278 1.2549118e-38 311 269
-0.0097625591 0.69599998 -0.035389278 1.2272529e-38 312 269
-0.0085545136 0.69700003 -0.035440128 1.1995942e-38 313 269
-0.00733244 0.69700003 -0.035440128 1.1995942e-38 314 269
-0.006119133 0.69800001 -0.035490975 1.2179974e-38 315 269
-0.0048953067 0.69800001 -0.035490975 1.1811913e-38 316 269
-0.0036714801 0.69800001 -0.035490975 1.1811913e-38 317 269
-0.0024476533 0.69800001 -0.035490975 1.2546599e-38 318 269
-0.0012238267 0.69800001 -0.035490975 1.2454402e-38 319 269
0 0.69800001 -0.035490975 1.2269286e-38 320 269
0.0012238267 0.69800001 -0.035490975 1.2269286e-38 321 269
0.0024476533 0.69800001 -0.035490975 1.2084892e-38 322 269
0.0036714801 0.69800001 -0.035490975 1.2269642e-38 323 269
0.0048953067 0.69800001 -0.035490975 1.1902301e-38 324 269
0.006119133 0.69800001 -0.035490975 1.1902301e-38 325 269
0.0073639993 0.69999999 -0.035592664 1.2084174e-38 326 269
0.0085913334 0.69999999 -0.035592664 1.2268207e-38 327 269
0.0098326923 0.70099998 -0.035643511 1.217709e-38 328 269
0.011061779 0.70099998 -0.035643511 1.2084895e-38 329 269
0.012325933 0.70300001 -0.035745207 1.2451152e-38 330 269
0.013577812 0.704 -0.035796054 1.2543348e-38 331 269
0.014854239 0.70599997 -0.035897743 1.3003238e-38 332 269
0.016114887 0.70700002 -0.035948593 1.3556412e-38 333 269
0.017379038 0.708 -0.03599944 1.4568395e-38 334 269
0.0186993 0.71100003 -0.036151983 1.4107418e-38 335 269
0.020002026 0.713 -0.036253672 1.3096856e-38 336 269
0.021252153 0.713 -0.036253672 1.2912465e-38 337 269
0.022502279 0.713 -0.036253672 1.4475815e-38 338 269
0.023852346 0.71600002 -0.036406212 2.0099389e-38 339 269
0.025107734 0.71600002 -0.036406212 2.2493941e-38 340 269
0.026363119 0.71600002 -0.036406212 2.2216996e-38 341 269
-0.037398599 0.71100003 -0.037398599 1.9637685e-38 290 270
-0.036101133 0.70999998 -0.037345998 1.7517545e-38 291 270
-0.034856264 0.70999998 -0.037345998 1.6228621e-38 292 270
-0.033516716 0.708 -0.0372408 1.5952033e-38 293 270
-0.032229774 0.70700002 -0.037188202 1.5861652e-38 294 270
-0.030990168 0.70700002 -0.037188202 1.5400674e-38 295 270
-0.029708479 0.70599997 -0.037135597 1.5124457e-38 296 270
-0.028389972 0.704 -0.037030395 1.6230804e-38 297 270
-0.027155625 0.704 -0.037030395 1.6874712e-38 298 270
-0.025884461 0.70300001 -0.036977798 1.50308e-38 299 270
-0.024581732 0.70099998 -0.036872596 1.3268611e-38 300 270
-0.023319334 0.69999999 -0.036819998 1.2715437e-38 301 270
-0.02202888 0.69800001 -0.0367148 1.5671838e-38 302 270
-0.020805053 0.69800001 -0.0367148 1.8160761e-38 303 270
-0.019637333 0.69999999 -0.036819998 1.5866348e-38 304 270
-0.018409999 0.69999999 -0.036819998 1.5497205e-38 305 270
-0.017133573 0.69800001 -0.0367148 1.2272529e-38 306 270
-0.015909746 0.69800001 -0.0367148 1.2179974e-38 307 270
-0.01468592 0.69800001 -0.0367148 1.2822825e-38 308 270
-0.013462093 0.69800001 -0.0367148 1.3007575e-38 309 270
-0.012238266 0.69800001 -0.0367148 1.2732784e-38 310 270
-0.01099866 0.69700003 -0.036662199 1.2732784e-38 311 270
-0.0097765867 0.69700003 -0.036662199 1.2547318e-38 312 270
-0.0085545136 0.69700003 -0.036662199 1.2362925e-38 313 270
-0.00733244 0.69700003 -0.036662199 1.2179974e-38 314 270
-0.006119133 0.69800001 -0.0367148 1.2272529e-38 315 270
-0.0048953067 0.69800001 -0.0367148 1.2271807e-38 316 270
-0.0036714801 0.69800001 -0.0367148 1.2271807e-38 317 270
-0.0024476533 0.69800001 -0.0367148 1.2546596e-38 318 270
-0.0012238267 0.69800001 -0.0367148 1.2454399e-38 319 270
0 0.69800001 -0.0367148 1.2638064e-38 320 270
0.0012238267 0.69800001 -0.0367148 1.2269642e-38 321 270
0.0024476533 0.69800001 -0.0367148 1.190158e-38 322 270
0.0036714801 0.69800001 -0.0367148 1.2085611e-38 323 270
0.0048953067 0.69800001 -0.0367148 1.2085616e-38 324 270
0.0061366665 0.69999999 -0.036819998 1.2085616e-38 325 270
0.0073639993 0.69999999 -0.036819998 1.2084895e-38 326 270
0.0085913334 0.69999999 -0.036819998 1.2269286e-38 327 270
0.0098326923 0.70099998 -0.036872596 1.2543352e-38 328 270
0.01109334 0.70300001 -0.036977798 1.2451155e-38 329 270
0.012325933 0.70300001 -0.036977798 1.263518e-38 330 270
0.013616386 0.70599997 -0.037135597 1.2819213e-38 331 270
0.01487528 0.70700002 -0.037188202 1.3279465e-38 332 270
0.01613768 0.708 -0.0372408 1.337202e-38 333 270
0.017428132 0.70999998 -0.037345998 1.3370216e-38 334 270
0.0186993 0.71100003 -0.037398599 1.2909597e-38 335 270
0.020002026 0.713 -0.037503798 1.2542241e-38 336 270
0.021281958 0.71399999 -0.037556399 1.3002859e-38 337 270
0.022533838 0.71399999 -0.037556399 1.4476531e-38 338 270
0.023852346 0.71600002 -0.037661601 2.0100105e-38 339 270
0.025107734 0.71600002 -0.037661601 2.2401387e-38 340 270
0.026363119 0.71600002 -0.037661601 2.1848572e-38 341 270
-0.038916986 0.71600002 -0.038916986 2.2033684e-38 289 271
-0.037503798 0.713 -0.038753927 1.9361102e-38 290 271
-0.036151983 0.71100003 -0.038645219 1.7793775e-38 291 271
-0.034856264 0.70999998 -0.038590867 1.659633e-38 292 271
-0.033516716 0.708 -0.038482159 1.5028646e-38 293 271
-0.03227536 0.708 -0.038482159 1.5122293e-38 294 271
-0.030990168 0.70700002 -0.038427804 1.5122293e-38 295 271
-0.029708479 0.70599997 -0.038373452 1.4296497e-38 296 271
-0.028389972 0.704 -0.038264744 1.4941866e-38 297 271
-0.027155625 0.704 -0.038264744 1.5956738e-38 298 271
-0.025884461 0.70300001 -0.038210396 1.697089e-38 299 271
-0.024651866 0.70300001 -0.038210396 1.7332813e-38 300 271
-0.023319334 0.69999999 -0.038047329 1.530451e-38 301 271
-0.022091998 0.69999999 -0.038047329 1.5676532e-38 302 271
-0.020864666 0.69999999 -0.038047329 1.7059826e-38 303 271
-0.019637333 0.69999999 -0.038047329 1.6050023e-38 304 271
-0.018409999 0.69999999 -0.038047329 1.5497208e-38 305 271
-0.017182667 0.69999999 -0.038047329 1.1903749e-38 306 271
-0.015955333 0.69999999 -0.038047329 1.1626803e-38 307 271
-0.01468592 0.69800001 -0.037938625 1.2914305e-38 308 271
-0.013462093 0.69800001 -0.037938625 1.3006501e-38 309 271
-0.012238266 0.69800001 -0.037938625 1.2822825e-38 310 271
-0.01101444 0.69800001 -0.037938625 1.2362206e-38 311 271
-0.0097906133 0.69800001 -0.037938625 1.2635916e-38 312 271
-0.0085667865 0.69800001 -0.037938625 1.2728112e-38 313 271
-0.0073429602 0.69800001 -0.037938625 1.2362925e-38 314 271
-0.006119133 0.69800001 -0.037938625 1.2362925e-38 315 271
-0.0048953067 0.69800001 -0.037938625 1.2636995e-38 316 271
-0.0036714801 0.69800001 -0.037938625 1.2636995e-38 317 271
-0.0024476533 0.69800001 -0.037938625 1.2636995e-38 318 271
