# .PCD v.7 - Point Cloud Data file format
FIELDS x y z rgb imX imY
SIZE 4 4 4 4 4 4
TYPE F F F F F F
COUNT 1 1 1 1 1 1
WIDTH 832
HEIGHT 1
VIEWPOINT 0 0 0 1 0 0 0
POINTS 832
DATA ascii
-0.014580719 0.69300002 -0.021871079 1.5313893e-38 308 258
-0.01336566 0.69300002 -0.021871079 1.5129143e-38 309 258
-0.012150601 0.69300002 -0.021871079 1.4853633e-38 310 258
-0.01090398 0.69099998 -0.021807959 1.494583e-38 311 258
-0.0096924258 0.69099998 -0.021807959 1.5038745e-38 312 258
-0.0084686 0.69 -0.021776399 1.3471418e-38 313 258
-0.0072587994 0.69 -0.021776399 9.7904464e-39 314 258
-0.0060489997 0.69 -0.021776399 7.3937187e-39 315 258
-0.0048391996 0.69 -0.021776399 1.0705203e-38 316 258
-0.0036293997 0.69 -0.021776399 1.181155e-38 317 258
-0.0024195998 0.69 -0.021776399 1.2725575e-38 318 258
-0.0012097999 0.69 -0.021776399 1.2172402e-38 319 258
0 0.69 -0.021776399 1.1440592e-38 320 258
0.0012097999 0.69 -0.021776399 1.1072168e-38 321 258
0.0024231065 0.69099998 -0.021807959 1.161706e-38 322 258
0.0036346598 0.69099998 -0.021807959 9.9575386e-39 323 258
0.0048462129 0.69099998 -0.021807959 1.206509e-38 324 258
0.0060753003 0.69300002 -0.021871079 1.206509e-38 325 258
0.0073008798 0.69400001 -0.021902639 6.4703219e-39 326 258
0.0085176928 0.69400001 -0.021902639 5.7323967e-39 327 258
0.0097345067 0.69400001 -0.021902639 4.7337137e-39 328 258
0.010982879 0.69599998 -0.021965759 7.592137e-39 329 258
0.012220734 0.69700003 -0.02199732 1.1439859e-38 330 258
0.013442807 0.69700003 -0.02199732 1.162389e-38 331 258
0.01468592 0.69800001 -0.02202888 1.1165417e-38 332 258
0.015955333 0.69999999 -0.022091998 1.0981026e-38 333 258
0.017207211 0.70099998 -0.022123558 1.2543683e-38 334 258
0.018488899 0.70300001 -0.02218668 1.2543683e-38 335 258
0.019749546 0.704 -0.022218239 1.2726635e-38 336 258
0.021043506 0.70599997 -0.022281358 1.2081265e-38 337 258
0.022281358 0.70599997 -0.022281358 1.2445722e-38 338 258
0.023552528 0.70700002 -0.022312919 1.6133907e-38 339 258
0.024932399 0.71100003 -0.022439159 1.9362174e-38 340 258
0.026289478 0.71399999 -0.022533838 2.2220599e-38 341 258
0.027618507 0.71600002 -0.022596961 2.2035479e-38 342 258
-0.038482159 0.708 -0.023585839 2.3048554e-38 289 259
-0.0372408 0.708 -0.023585839 2.1203568e-38 290 259
-0.03599944 0.708 -0.023585839 1.8345864e-38 291 259
-0.034708988 0.70700002 -0.023552528 1.6401115e-38 292 259
-0.033422034 0.70599997 -0.023519212 1.5479158e-38 293 259
-0.032093015 0.704 -0.023452586 1.4450225e-38 294 259
-0.030858666 0.704 -0.023452586 1.4173279e-38 295 259
-0.029582238 0.70300001 -0.023419274 1.3443999e-38 296 259
-0.028228667 0.69999999 -0.023319334 1.3628749e-38 297 259
-0.026924185 0.69800001 -0.023252707 1.3078478e-38 298 259
-0.025700359 0.69800001 -0.023252707 9.8516313e-39 299 259
-0.024441468 0.69700003 -0.023219392 1.285701e-38 300 259
-0.023186078 0.69599998 -0.023186078 1.1754967e-38 301 259
-0.021965759 0.69599998 -0.023186078 1.1940468e-38 302 259
-0.020745439 0.69599998 -0.023186078 1.4521945e-38 303 259
-0.019469013 0.69400001 -0.023119451 1.316208e-38 304 259
-0.0182522 0.69400001 -0.023119451 1.6112341e-38 305 259
-0.01701084 0.69300002 -0.02308614 1.5300219e-38 306 259
-0.015795778 0.69300002 -0.02308614 1.7051936e-38 307 259
-0.014580719 0.69300002 -0.02308614 1.5862392e-38 308 259
-0.01336566 0.69300002 -0.02308614 1.6047142e-38 309 259
-0.012150601 0.69300002 -0.02308614 1.494583e-38 310 259
-0.01090398 0.69099998 -0.023019511 1.4853633e-38 311 259
-0.0096924258 0.69099998 -0.023019511 1.5222413e-38 312 259
-0.008480873 0.69099998 -0.023019511 1.3010078e-38 313 259
-0.0072693196 0.69099998 -0.023019511 8.6772689e-39 314 259
-0.0060577663 0.69099998 -0.023019511 6.8333563e-39 315 259
-0.0048462129 0.69099998 -0.023019511 8.2234808e-39 316 259
-0.0036346598 0.69099998 -0.023019511 9.4220226e-39 317 259
-0.0024231065 0.69099998 -0.023019511 9.8732715e-39 318 259
-0.0012115532 0.69099998 -0.023019511 8.3059458e-39 319 259
0 0.69099998 -0.023019511 7.9422052e-39 320 259
0.0012115532 0.69099998 -0.023019511 7.8500095e-39 321 259
0.0024231065 0.69099998 -0.023019511 8.6765108e-39 322 259
0.0036451798 0.69300002 -0.02308614 8.3995638e-39 323 259
0.00486024 0.69300002 -0.02308614 1.0602167e-38 324 259
0.0060753003 0.69300002 -0.02308614 1.0233384e-38 325 259
0.0073008798 0.69400001 -0.023119451 6.1969496e-39 326 259
0.0085176928 0.69400001 -0.023119451 6.9345146e-39 327 259
0.0097345067 0.69400001 -0.023119451 7.9465366e-39 328 259
0.010982879 0.69599998 -0.023186078 9.8826448e-39 329 259
0.012220734 0.69700003 -0.023219392 1.1902652e-38 330 259
0.013442807 0.69700003 -0.023219392 1.1994847e-38 331 259
0.01468592 0.69800001 -0.023252707 1.2453289e-38 332 259
0.015955333 0.69999999 -0.023319334 1.180792e-38 333 259
0.017207211 0.70099998 -0.023352645 1.2267098e-38 334 259
0.018488899 0.70300001 -0.023419274 1.2174544e-38 335 259
0.019749546 0.704 -0.023452586 1.1899038e-38 336 259
0.021043506 0.70599997 -0.023519212 1.1991235e-38 337 259
0.022281358 0.70599997 -0.023519212 1.2451487e-38 338 259
0.023552528 0.70700002 -0.023552528 1.5678334e-38 339 259
0.024932399 0.71100003 -0.023685781 1.9271057e-38 340 259
0.026289478 0.71399999 -0.02378572 2.1852535e-38 341 259
0.027618507 0.71600002 -0.023852346 2.1943639e-38 342 259
-0.038590867 0.70999998 -0.024897331 2.3325138e-38 289 260
-0.0372408 0.708 -0.024827199 2.1111373e-38 290 260
-0.03599944 0.708 -0.024827199 1.760794e-38 291 260
-0.034708988 0.70700002 -0.024792133 1.6216354e-38 292 260
-0.033422034 0.70599997 -0.024757065 1.649294e-38 293 260
-0.032093015 0.704 -0.024686933 1.620627e-38 294 260
-0.030858666 0.704 -0.024686933 1.5100283e-38 295 260
-0.029582238 0.70300001 -0.024651866 1.4363807e-38 296 260
-0.028268991 0.70099998 -0.024581732 1.3995023e-38 297 260
-0.027001332 0.69999999 -0.024546666 1.4089015e-38 298 260
-0.025700359 0.69800001 -0.024476532 1.1600092e-38 299 260
-0.024441468 0.69700003 -0.024441468 1.4244989e-38 300 260
-0.023219392 0.69700003 -0.024441468 1.3968402e-38 301 260
-0.02199732 0.69700003 -0.024441468 1.3964456e-38 302 260
-0.020775247 0.69700003 -0.024441468 1.3411282e-38 303 260
-0.019469013 0.69400001 -0.024336265 1.3775409e-38 304 260
-0.0182522 0.69400001 -0.024336265 1.3683572e-38 305 260
-0.01701084 0.69300002 -0.024301201 1.2948911e-38 306 260
-0.015795778 0.69300002 -0.024301201 1.7923887e-38 307 260
-0.014580719 0.69300002 -0.024301201 1.271946e-38 308 260
-0.01336566 0.69300002 -0.024301201 1.5946307e-38 309 260
-0.012150601 0.69300002 -0.024301201 1.5405009e-38 310 260
-0.01090398 0.69099998 -0.024231065 1.5128422e-38 311 260
-0.0096924258 0.69099998 -0.024231065 1.5038382e-38 312 260
-0.0085054198 0.69300002 -0.024301201 1.3378501e-38 313 260
-0.0072903596 0.69300002 -0.024301201 9.7857618e-39 314 260
-0.0060753003 0.69300002 -0.024301201 8.1265992e-39 315 260
-0.00486024 0.69300002 -0.024301201 8.6812177e-39 316 260
-0.0036451798 0.69300002 -0.024301201 9.0496415e-39 317 260
-0.00243012 0.69300002 -0.024301201 9.5088078e-39 318 260
-0.00121506 0.69300002 -0.024301201 1.0061623e-38 319 260
0 0.69300002 -0.024301201 1.0706992e-38 320 260
0.00121506 0.69300002 -0.024301201 1.0983938e-38 321 260
0.00243012 0.69300002 -0.024301201 1.1442039e-38 322 260
0.0036451798 0.69300002 -0.024301201 1.1534594e-38 323 260
0.00486024 0.69300002 -0.024301201 1.2360742e-38 324 260
0.0060753003 0.69300002 -0.024301201 1.1715372e-38 325 260
0.0073008798 0.69400001 -0.024336265 1.0061962e-38 326 260
0.0085176928 0.69400001 -0.024336265 1.0061962e-38 327 260
0.0097345067 0.69400001 -0.024336265 1.0882038e-38 328 260
0.010982879 0.69599998 -0.0244064 1.042106e-38 329 260
0.012220734 0.69700003 -0.024441468 9.1450644e-39 330 260
0.013442807 0.69700003 -0.024441468 9.8826294e-39 331 260
0.014727999 0.69999999 -0.024546666 1.1900481e-38 332 260
0.015955333 0.69999999 -0.024546666 1.1808285e-38 333 260
0.017207211 0.70099998 -0.024581732 1.2175626e-38 334 260
0.018488899 0.70300001 -0.024651866 1.1991235e-38 335 260
0.019749546 0.704 -0.024686933 1.1898319e-38 336 260
0.021043506 0.70599997 -0.024757065 1.1898319e-38 337 260
0.022312919 0.70700002 -0.024792133 1.2175253e-38 338 260
0.023652466 0.70999998 -0.024897331 1.5770883e-38 339 260
0.025037598 0.71399999 -0.025037598 1.9271057e-38 340 260
0.026289478 0.71399999 -0.025037598 2.1760339e-38 341 260
0.027618507 0.71600002 -0.025107734 2.2310989e-38 342 260
-0.038590867 0.70999998 -0.026142199 2.3325138e-38 289 261
-0.037345998 0.70999998 -0.026142199 2.1203919e-38 290 261
-0.03599944 0.708 -0.026068559 1.7239507e-38 291 261
-0.034708988 0.70700002 -0.02603174 1.5753905e-38 292 261
-0.033469379 0.70700002 -0.02603174 1.778221e-38 293 261
-0.032184184 0.70599997 -0.025994917 1.6949578e-38 294 261
-0.030946331 0.70599997 -0.025994917 1.64886e-38 295 261
-0.029624319 0.704 -0.02592128 1.547412e-38 296 261
-0.028349647 0.70300001 -0.025884461 1.4644359e-38 297 261
-0.027001332 0.69999999 -0.025773998 1.5009882e-38 298 261
-0.025700359 0.69800001 -0.025700359 1.1413893e-38 299 261
-0.024476532 0.69800001 -0.025700359 1.3872594e-38 300 261
-0.023219392 0.69700003 -0.025663542 1.4333572e-38 301 261
-0.02199732 0.69700003 -0.025663542 1.4151702e-38 302 261
-0.020775247 0.69700003 -0.025663542 1.4059506e-38 303 261
-0.019553173 0.69700003 -0.025663542 1.3872241e-38 304 261
-0.0182522 0.69400001 -0.025553079 1.304248e-38 305 261
-0.017035386 0.69400001 -0.025553079 1.2397835e-38 306 261
-0.015818574 0.69400001 -0.025553079 1.2673348e-38 307 261
-0.01460176 0.69400001 -0.025553079 1.0677098e-38 308 261
-0.01336566 0.69300002 -0.02551626 1.6854206e-38 309 261
-0.012150601 0.69300002 -0.02551626 1.5955659e-38 310 261
-0.010935539 0.69300002 -0.02551626 1.5587236e-38 311 261
-0.0097204801 0.69300002 -0.02551626 1.5221694e-38 312 261
-0.0085054198 0.69300002 -0.02551626 1.3746563e-38 313 261
-0.0072903596 0.69300002 -0.02551626 1.1902667e-38 314 261
-0.0060753003 0.69300002 -0.02551626 1.0888515e-38 315 261
-0.00486024 0.69300002 -0.02551626 1.1166547e-38 316 261
-0.0036451798 0.69300002 -0.02551626 1.1166547e-38 317 261
-0.00243012 0.69300002 -0.02551626 1.153424e-38 318 261
-0.00121506 0.69300002 -0.02551626 1.153424e-38 319 261
0 0.69300002 -0.02551626 1.1258377e-38 320 261
0.00121506 0.69300002 -0.02551626 1.1903746e-38 321 261
0.00243012 0.69300002 -0.02551626 1.2454766e-38 322 261
0.0036451798 0.69300002 -0.02551626 1.254732e-38 323 261
0.00486024 0.69300002 -0.02551626 1.3373115e-38 324 261
0.0060840664 0.69400001 -0.025553079 1.2266768e-38 325 261
0.0073008798 0.69400001 -0.025553079 1.0795581e-38 326 261
0.0085176928 0.69400001 -0.025553079 1.061119e-38 327 261
0.0097625591 0.69599998 -0.025626717 1.1160413e-38 328 261
0.01099866 0.69700003 -0.025663542 1.0884186e-38 329 261
0.012220734 0.69700003 -0.025663542 1.08885e-38 330 261
0.013462093 0.69800001 -0.025700359 1.1441673e-38 331 261
0.014727999 0.69999999 -0.025773998 1.2176348e-38 332 261
0.015955333 0.69999999 -0.025773998 1.2176348e-38 333 261
0.017256306 0.70300001 -0.025884461 1.2634802e-38 334 261
0.018515198 0.704 -0.02592128 1.226638e-38 335 261
0.019805651 0.70599997 -0.025994917 1.198943e-38 336 261
0.021043506 0.70599997 -0.025994917 1.2081984e-38 337 261
0.022344479 0.708 -0.026068559 1.2358198e-38 338 261
0.023652466 0.70999998 -0.026142199 1.632261e-38 339 261
0.025037598 0.71399999 -0.026289478 1.9546921e-38 340 261
0.026363119 0.71600002 -0.026363119 2.2220596e-38 341 261
0.027657079 0.71700001 -0.02639994 2.2311708e-38 342 261
-0.038590867 0.70999998 -0.027387066 2.3141109e-38 289 262
-0.037345998 0.70999998 -0.027387066 2.1295751e-38 290 262
-0.03599944 0.708 -0.027309919 1.6685611e-38 291 262
-0.034708988 0.70700002 -0.027271347 1.4734037e-38 292 262
-0.033469379 0.70700002 -0.027271347 1.6024776e-38 293 262
-0.032184184 0.70599997 -0.027232772 1.7042172e-38 294 262
-0.030946331 0.70599997 -0.027232772 1.7871932e-38 295 262
-0.029708479 0.70599997 -0.027232772 1.6398597e-38 296 262
-0.028389972 0.704 -0.027155625 1.5384444e-38 297 262
-0.027117053 0.70300001 -0.027117053 1.5196441e-38 298 262
-0.025773998 0.69999999 -0.027001332 1.2430573e-38 299 262
-0.024476532 0.69800001 -0.026924185 1.4346152e-38 300 262
-0.023252707 0.69800001 -0.026924185 1.2963217e-38 301 262
-0.02202888 0.69800001 -0.026924185 1.3326964e-38 302 262
-0.020805053 0.69800001 -0.026924185 1.3511355e-38 303 262
-0.019553173 0.69700003 -0.026885614 1.3693245e-38 304 262
-0.018304799 0.69599998 -0.026847038 1.3877276e-38 305 262
-0.017035386 0.69400001 -0.026769891 1.4242471e-38 306 262
-0.015818574 0.69400001 -0.026769891 1.3597102e-38 307 262
-0.01460176 0.69400001 -0.026769891 1.1124403e-38 308 262
-0.013384946 0.69400001 -0.026769891 1.8868836e-38 309 262
-0.012168133 0.69400001 -0.026769891 1.6139685e-38 310 262
-0.010935539 0.69300002 -0.02673132 1.5770901e-38 311 262
-0.0097204801 0.69300002 -0.02673132 1.4946184e-38 312 262
-0.0085054198 0.69300002 -0.02673132 1.3563248e-38 313 262
-0.0072903596 0.69300002 -0.02673132 1.1900496e-38 314 262
-0.0060753003 0.69300002 -0.02673132 1.1347681e-38 315 262
-0.00486024 0.69300002 -0.02673132 1.0613729e-38 316 262
-0.0036451798 0.69300002 -0.02673132 1.0705926e-38 317 262
-0.00243012 0.69300002 -0.02673132 1.0798843e-38 318 262
-0.00121506 0.69300002 -0.02673132 1.0798843e-38 319 262
0 0.69300002 -0.02673132 1.0430058e-38 320 262
0.00121506 0.69300002 -0.02673132 1.0706645e-38 321 262
0.00243012 0.69300002 -0.02673132 1.1073264e-38 322 262
0.0036504399 0.69400001 -0.026769891 1.0888871e-38 323 262
0.0048672534 0.69400001 -0.026769891 1.1623193e-38 324 262
0.0060840664 0.69400001 -0.026769891 1.1623193e-38 325 262
0.0073008798 0.69400001 -0.026769891 1.1163287e-38 326 262
0.0085422397 0.69599998 -0.026847038 1.0978897e-38 327 262
0.0097625591 0.69599998 -0.026847038 1.0887055e-38 328 262
0.01099866 0.69700003 -0.026885614 1.0702662e-38 329 262
0.012238266 0.69800001 -0.026924185 1.1623537e-38 330 262
0.013462093 0.69800001 -0.026924185 1.2361462e-38 331 262
0.014727999 0.69999999 -0.027001332 1.2085231e-38 332 262
0.015978126 0.70099998 -0.027039904 1.2085231e-38 333 262
0.017256306 0.70300001 -0.027117053 1.2452209e-38 334 262
0.018515198 0.704 -0.027155625 1.2175982e-38 335 262
0.019805651 0.70599997 -0.027232772 1.2175979e-38 336 262
0.021073313 0.70700002 -0.027271347 1.1991588e-38 337 262
0.022407599 0.70999998 -0.027387066 1.2632987e-38 338 262
0.023685781 0.71100003 -0.027425639 1.6689596e-38 339 262
0.025037598 0.71399999 -0.02754136 1.9547285e-38 340 262
0.026363119 0.71600002 -0.027618507 2.2128763e-38 341 262
0.027618507 0.71600002 -0.027618507 2.2219513e-38 342 262
-0.038645219 0.71100003 -0.028672259 2.3141826e-38 289 263
-0.037345998 0.70999998 -0.028631933 2.1203197e-38 290 263
-0.03599944 0.708 -0.02855128 1.6593416e-38 291 263
-0.034708988 0.70700002 -0.028510952 1.4732965e-38 292 263
-0.033469379 0.70700002 -0.028510952 1.5378334e-38 293 263
-0.032184184 0.70599997 -0.028470624 1.6489363e-38 294 263
-0.030946331 0.70599997 -0.028470624 1.7503876e-38 295 263
-0.029708479 0.70599997 -0.028470624 1.6398963e-38 296 263
-0.028389972 0.704 -0.028389972 1.5569202e-38 297 263
-0.027117053 0.70300001 -0.028349647 1.5109296e-38 298 263
-0.025884461 0.70300001 -0.028349647 1.4833069e-38 299 263
-0.024546666 0.69999999 -0.028228667 1.5196441e-38 300 263
-0.023252707 0.69800001 -0.028148014 1.3260333e-38 301 263
-0.02202888 0.69800001 -0.028148014 1.3254935e-38 302 263
-0.020805053 0.69800001 -0.028148014 1.3254935e-38 303 263
-0.019581227 0.69800001 -0.028148014 1.3982432e-38 304 263
-0.018331099 0.69700003 -0.028107686 1.3060117e-38 305 263
-0.017084479 0.69599998 -0.028067358 1.3692897e-38 306 263
-0.015818574 0.69400001 -0.027986705 1.3508147e-38 307 263
-0.01460176 0.69400001 -0.027986705 1.1675776e-38 308 263
-0.013384946 0.69400001 -0.027986705 1.8959231e-38 309 263
-0.012168133 0.69400001 -0.027986705 1.6048208e-38 310 263
-0.010935539 0.69300002 -0.027946379 1.5587589e-38 311 263
-0.0097204801 0.69300002 -0.027946379 1.4946184e-38 312 263
-0.0085054198 0.69300002 -0.027946379 1.3655445e-38 313 263
-0.0072903596 0.69300002 -0.027946379 1.2819216e-38 314 263
-0.0060753003 0.69300002 -0.027946379 1.2542629e-38 315 263
-0.00486024 0.69300002 -0.027946379 1.0983588e-38 316 263
-0.0036451798 0.69300002 -0.027946379 1.1075783e-38 317 263
-0.00243012 0.69300002 -0.027946379 1.2177456e-38 318 263
-0.00121506 0.69300002 -0.027946379 1.1809032e-38 319 263
0 0.69400001 -0.027986705 1.1809385e-38 320 263
0.0012168133 0.69400001 -0.027986705 1.2085614e-38 321 263
0.0024336267 0.69400001 -0.027986705 1.2452232e-38 322 263
0.0036504399 0.69400001 -0.027986705 1.1438079e-38 323 263
0.0048672534 0.69400001 -0.027986705 1.0977821e-38 324 263
0.0061015999 0.69599998 -0.028067358 1.1162212e-38 325 263
0.0073219193 0.69599998 -0.028067358 1.0887068e-38 326 263
0.0085422397 0.69599998 -0.028067358 1.0610841e-38 327 263
0.0097625591 0.69599998 -0.028067358 1.0887055e-38 328 263
0.01099866 0.69700003 -0.028107686 1.1440227e-38 329 263
0.012238266 0.69800001 -0.028148014 1.1808288e-38 330 263
0.013500666 0.69999999 -0.028228667 1.2268906e-38 331 263
0.014727999 0.69999999 -0.028228667 1.2267824e-38 332 263
0.016023712 0.70300001 -0.028349647 1.2451855e-38 333 263
0.017256306 0.70300001 -0.028349647 1.2451853e-38 334 263
0.018515198 0.704 -0.028389972 1.2451853e-38 335 263
0.019805651 0.70599997 -0.028470624 1.2453286e-38 336 263
0.021073313 0.70700002 -0.028510952 1.2361089e-38 337 263
0.022407599 0.70999998 -0.028631933 1.2909576e-38 338 263
0.023685781 0.71100003 -0.028672259 1.6597399e-38 339 263
0.025002534 0.713 -0.028752912 1.9822433e-38 340 263
0.026363119 0.71600002 -0.028873893 2.2311714e-38 341 263
-0.038645219 0.71100003 -0.029918881 2.3049629e-38 289 264
-0.037345998 0.70999998 -0.029876797 2.1388666e-38 290 264
-0.03599944 0.708 -0.02979264 1.7516451e-38 291 264
-0.034758076 0.708 -0.02979264 1.4921668e-38 292 264
-0.033469379 0.70700002 -0.029750559 1.4829472e-38 293 264
-0.032229774 0.70700002 -0.029750559 1.5843994e-38 294 264
-0.030990168 0.70700002 -0.029750559 1.5751798e-38 295 264
-0.029708479 0.70599997 -0.029708479 1.5291192e-38 296 264
-0.028389972 0.704 -0.029624319 1.5475584e-38 297 264
-0.027117053 0.70300001 -0.029582238 1.5755048e-38 298 264
-0.025884461 0.70300001 -0.029582238 1.5847244e-38 299 264
-0.024546666 0.69999999 -0.029455997 1.5845795e-38 300 264
-0.023252707 0.69800001 -0.029371841 1.5753599e-38 301 264
-0.02202888 0.69800001 -0.029371841 1.5112546e-38 302 264
-0.020805053 0.69800001 -0.029371841 1.4928154e-38 303 264
-0.019581227 0.69800001 -0.029371841 1.5471968e-38 304 264
-0.0183574 0.69800001 -0.029371841 1.3167437e-38 305 264
-0.017109027 0.69700003 -0.02932976 1.3142244e-38 306 264
-0.015864158 0.69599998 -0.029287677 1.2957494e-38 307 264
-0.014643839 0.69599998 -0.029287677 1.2043832e-38 308 264
-0.013423519 0.69599998 -0.029287677 1.905106e-38 309 264
-0.0122032 0.69599998 -0.029287677 1.6232958e-38 310 264
-0.01095132 0.69400001 -0.029203519 1.5679786e-38 311 264
-0.0097345067 0.69400001 -0.029203519 1.4853631e-38 312 264
-0.0085176928 0.69400001 -0.029203519 1.3655448e-38 313 264
-0.0073008798 0.69400001 -0.029203519 1.3006125e-38 314 264
-0.0060840664 0.69400001 -0.029203519 1.2913928e-38 315 264
-0.0048672534 0.69400001 -0.029203519 1.2454749e-38 316 264
-0.0036504399 0.69400001 -0.029203519 1.2454749e-38 317 264
-0.0024336267 0.69400001 -0.029203519 1.263842e-38 318 264
-0.0012168133 0.69400001 -0.029203519 1.2269639e-38 319 264
0 0.69400001 -0.029203519 1.2453304e-38 320 264
0.0012168133 0.69400001 -0.029203519 1.273025e-38 321 264
0.0024336267 0.69400001 -0.029203519 1.3097228e-38 322 264
0.0036504399 0.69400001 -0.029203519 1.2175273e-38 323 264
0.0048672534 0.69400001 -0.029203519 1.1622105e-38 324 264
0.0061015999 0.69599998 -0.029287677 1.1529909e-38 325 264
0.0073219193 0.69599998 -0.029287677 1.1255127e-38 326 264
0.0085422397 0.69599998 -0.029287677 1.0609758e-38 327 264
0.0097765867 0.69700003 -0.02932976 1.0244924e-38 328 264
0.01101444 0.69800001 -0.029371841 1.1812251e-38 329 264
0.012238266 0.69800001 -0.029371841 1.2360742e-38 330 264
0.013500666 0.69999999 -0.029455997 1.1807569e-38 331 264
0.014749039 0.70099998 -0.029498078 1.2174194e-38 332 264
0.016046507 0.704 -0.029624319 1.2358944e-38 333 264
0.017280852 0.704 -0.029624319 1.2451858e-38 334 264
0.018515198 0.704 -0.029624319 1.2544054e-38 335 264
0.019805651 0.70599997 -0.029708479 1.263732e-38 336 264
0.021073313 0.70700002 -0.029750559 1.2453289e-38 337 264
0.022407599 0.70999998 -0.029876797 1.3004292e-38 338 264
0.023685781 0.71100003 -0.029918881 1.6323335e-38 339 264
0.025002534 0.713 -0.030003037 1.982243e-38 340 264
0.026252659 0.713 -0.030003037 2.2035484e-38 341 264
-0.038645219 0.71100003 -0.031165501 2.3141109e-38 289 265
-0.037398599 0.71100003 -0.031165501 2.1941484e-38 290 265
-0.036101133 0.70999998 -0.031121666 1.8346214e-38 291 265
-0.034758076 0.708 -0.031034 1.5201496e-38 292 265
-0.033516716 0.708 -0.031034 1.5293692e-38 293 265
-0.032229774 0.70700002 -0.030990168 1.7136887e-38 294 265
-0.030990168 0.70700002 -0.030990168 1.4647606e-38 295 265
-0.029708479 0.70599997 -0.030946331 1.3715942e-38 296 265
-0.028389972 0.704 -0.030858666 1.4545702e-38 297 265
-0.027155625 0.704 -0.030858666 1.4827331e-38 298 265
-0.025884461 0.70300001 -0.030814834 1.5287949e-38 299 265
-0.024581732 0.70099998 -0.030727165 1.5567414e-38 300 265
-0.023319334 0.69999999 -0.030683333 1.6581206e-38 301 265
-0.022091998 0.69999999 -0.030683333 1.5112916e-38 302 265
-0.020864666 0.69999999 -0.030683333 1.5205111e-38 303 265
-0.019581227 0.69800001 -0.030595668 1.6031625e-38 304 265
-0.0183574 0.69800001 -0.030595668 1.4372464e-38 305 265
-0.017133573 0.69800001 -0.030595668 1.3144407e-38 306 265
-0.015886955 0.69700003 -0.030551834 1.1761472e-38 307 265
-0.01466488 0.69700003 -0.030551834 1.2226066e-38 308 265
-0.013423519 0.69599998 -0.030507999 1.9785747e-38 309 265
-0.0122032 0.69599998 -0.030507999 1.6784331e-38 310 265
-0.01095132 0.69400001 -0.030420333 1.6138962e-38 311 265
-0.0097345067 0.69400001 -0.030420333 1.5129143e-38 312 265
-0.0085176928 0.69400001 -0.030420333 1.3746207e-38 313 265
-0.0073008798 0.69400001 -0.030420333 1.2179963e-38 314 265
-0.0060840664 0.69400001 -0.030420333 1.1718986e-38 315 265
-0.0048672534 0.69400001 -0.030420333 1.2819939e-38 316 265
-0.0036504399 0.69400001 -0.030420333 1.2819939e-38 317 265
-0.0024336267 0.69400001 -0.030420333 1.2452954e-38 318 265
-0.0012168133 0.69400001 -0.030420333 1.2360758e-38 319 265
0 0.69400001 -0.030420333 1.2452588e-38 320 265
0.0012203199 0.69599998 -0.030507999 1.2728815e-38 321 265
0.0024406398 0.69599998 -0.030507999 1.3097228e-38 322 265
0.0036609597 0.69599998 -0.030507999 1.328162e-38 323 265
0.0048812795 0.69599998 -0.030507999 1.3463847e-38 324 265
0.0061015999 0.69599998 -0.030507999 1.2449336e-38 325 265
0.00733244 0.69700003 -0.030551834 1.2175276e-38 326 265
0.0085545136 0.69700003 -0.030551834 1.1990884e-38 327 265
0.0097765867 0.69700003 -0.030551834 1.0797379e-38 328 265
0.01101444 0.69800001 -0.030595668 1.1627139e-38 329 265
0.012238266 0.69800001 -0.030595668 1.2084875e-38 330 265
0.013500666 0.69999999 -0.030683333 1.1808288e-38 331 265
0.014812159 0.704 -0.030858666 1.2083796e-38 332 265
0.016046507 0.704 -0.030858666 1.2175992e-38 333 265
0.017280852 0.704 -0.030858666 1.2360739e-38 334 265
0.018567799 0.70599997 -0.030946331 1.2636967e-38 335 265
0.019833706 0.70700002 -0.030990168 1.2361456e-38 336 265
0.021103119 0.708 -0.031034 1.2361456e-38 337 265
0.022407599 0.70999998 -0.031121666 1.3097928e-38 338 265
0.023685781 0.71100003 -0.031165501 1.6416971e-38 339 265
0.025002534 0.713 -0.031253166 1.9914629e-38 340 265
0.026252659 0.713 -0.031253166 2.2219159e-38 341 265
-0.038645219 0.71100003 -0.032412119 2.314075e-38 289 266
-0.037398599 0.71100003 -0.032412119 2.166562e-38 290 266
-0.036101133 0.70999998 -0.032366529 1.8346577e-38 291 266
-0.034758076 0.708 -0.03227536 1.4373177e-38 292 266
-0.033516716 0.708 -0.03227536 1.5111101e-38 293 266
-0.032229774 0.70700002 -0.032229774 1.760038e-38 294 266
-0.030990168 0.70700002 -0.032229774 1.4834871e-38 295 266
-0.029708479 0.70599997 -0.032184184 1.3619392e-38 296 266
-0.028389972 0.704 -0.032093015 1.3250249e-38 297 266
-0.027155625 0.704 -0.032093015 1.3432124e-38 298 266
-0.025884461 0.70300001 -0.032047424 1.4815417e-38 299 266
-0.024581732 0.70099998 -0.031956252 1.5559131e-38 300 266
-0.023319334 0.69999999 -0.031910665 1.666512e-38 301 266
-0.022091998 0.69999999 -0.031910665 1.556778e-38 302 266
-0.020864666 0.69999999 -0.031910665 1.6305345e-38 303 266
-0.019637333 0.69999999 -0.031910665 1.667556e-38 304 266
-0.018409999 0.69999999 -0.031910665 1.5937995e-38 305 266
-0.017133573 0.69800001 -0.031819493 1.3422441e-38 306 266
-0.015909746 0.69800001 -0.031819493 1.1301581e-38 307 266
-0.01468592 0.69800001 -0.031819493 1.2226431e-38 308 266
-0.013442807 0.69700003 -0.03177391 1.9509886e-38 309 266
-0.0122032 0.69599998 -0.031728316 1.6783975e-38 310 266
-0.010982879 0.69599998 -0.031728316 1.6230802e-38 311 266
-0.0097625591 0.69599998 -0.031728316 1.5039467e-38 312 266
-0.0085176928 0.69400001 -0.031637147 1.3472501e-38 313 266
-0.0073008798 0.69400001 -0.031637147 1.2179963e-38 314 266
-0.0061015999 0.69599998 -0.031728316 1.1442039e-38 315 266
-0.0048672534 0.69400001 -0.031637147 1.190158e-38 316 266
-0.0036504399 0.69400001 -0.031637147 1.2177806e-38 317 266
-0.0024336267 0.69400001 -0.031637147 1.2177087e-38 318 266
-0.0012168133 0.69400001 -0.031637147 1.2084892e-38 319 266
0 0.69700003 -0.03177391 1.1993051e-38 320 266
0.0012220733 0.69700003 -0.03177391 1.2177443e-38 321 266
0.0024441467 0.69700003 -0.03177391 1.2638052e-38 322 266
0.0036609597 0.69599998 -0.031728316 1.2730247e-38 323 266
0.0048812795 0.69599998 -0.031728316 1.2821351e-38 324 266
0.0061103669 0.69700003 -0.03177391 1.2821351e-38 325 266
0.00733244 0.69700003 -0.03177391 1.3096875e-38 326 266
0.0085545136 0.69700003 -0.03177391 1.1990528e-38 327 266
0.0097765867 0.69700003 -0.03177391 1.0062707e-38 328 266
0.01101444 0.69800001 -0.031819493 1.0523327e-38 329 266
0.012273333 0.69999999 -0.031910665 1.1808651e-38 330 266
0.013558527 0.70300001 -0.032047424 1.1901205e-38 331 266
0.014812159 0.704 -0.032093015 1.2176348e-38 332 266
0.016092092 0.70599997 -0.032184184 1.2268543e-38 333 266
0.017329946 0.70599997 -0.032184184 1.2086314e-38 334 266
0.018594101 0.70700002 -0.032229774 1.217851e-38 335 266
0.01986176 0.708 -0.03227536 1.2821717e-38 336 266
0.021103119 0.708 -0.03227536 1.2913913e-38 337 266
0.022407599 0.70999998 -0.032366529 1.328232e-38 338 266
0.023685781 0.71100003 -0.032412119 1.6324775e-38 339 266
0.025002534 0.713 -0.032503292 1.9732035e-38 340 266
0.026252659 0.713 -0.032503292 2.1852535e-38 341 266
-0.038808275 0.71399999 -0.033800758 2.3141109e-38 289 267
-0.037503798 0.713 -0.033753417 2.1390112e-38 290 267
-0.036101133 0.70999998 -0.033611398 1.7886678e-38 291 267
-0.034856264 0.70999998 -0.033611398 1.2439235e-38 292 267
-0.033516716 0.708 -0.033516716 1.3729974e-38 293 267
-0.03227536 0.708 -0.033516716 1.6772793e-38 294 267
-0.030990168 0.70700002 -0.033469379 1.557425e-38 295 267
-0.029750559 0.70700002 -0.033469379 1.5468379e-38 296 267
-0.028470624 0.70599997 -0.033422034 1.4638617e-38 297 267
-0.027155625 0.704 -0.03332736 1.4909781e-38 298 267
-0.025884461 0.70300001 -0.033280019 1.0852814e-38 299 267
-0.024581732 0.70099998 -0.03318534 1.3688223e-38 300 267
-0.023352645 0.70099998 -0.03318534 1.4426146e-38 301 267
-0.022123558 0.70099998 -0.03318534 1.3796631e-38 302 267
-0.020864666 0.69999999 -0.033137999 1.5179566e-38 303 267
-0.019637333 0.69999999 -0.033137999 1.4363109e-38 304 267
-0.018409999 0.69999999 -0.033137999 1.4363109e-38 305 267
-0.017133573 0.69800001 -0.033043321 1.3605753e-38 306 267
-0.015909746 0.69800001 -0.033043321 1.2776353e-38 307 267
-0.01468592 0.69800001 -0.033043321 1.20424e-38 308 267
-0.013462093 0.69800001 -0.033043321 1.9417691e-38 309 267
-0.012220734 0.69700003 -0.03299598 1.6783975e-38 310 267
-0.010982879 0.69599998 -0.032948639 1.6230802e-38 311 267
-0.0097625591 0.69599998 -0.032948639 1.4855433e-38 312 267
-0.0085422397 0.69599998 -0.032948639 1.3472498e-38 313 267
-0.0073219193 0.69599998 -0.032948639 1.2547671e-38 314 267
-0.0061015999 0.69599998 -0.032948639 1.1810106e-38 315 267
-0.0048812795 0.69599998 -0.032948639 1.2084895e-38 316 267
-0.0036609597 0.69599998 -0.032948639 1.2545871e-38 317 267
-0.0024406398 0.69599998 -0.032948639 1.2086693e-38 318 267
-0.0012220733 0.69700003 -0.03299598 1.171755e-38 319 267
0 0.69700003 -0.03299598 1.217709e-38 320 267
0.0012220733 0.69700003 -0.03299598 1.217709e-38 321 267
0.0024441467 0.69700003 -0.03299598 1.2452951e-38 322 267
0.00366622 0.69700003 -0.03299598 1.2452951e-38 323 267
0.0048882933 0.69700003 -0.03299598 1.25455e-38 324 267
0.0061103669 0.69700003 -0.03299598 1.2914281e-38 325 267
0.0073429602 0.69800001 -0.033043321 1.328127e-38 326 267
0.0085667865 0.69800001 -0.033043321 1.1437357e-38 327 267
0.0097906133 0.69800001 -0.033043321 1.0154177e-38 328 267
0.011045999 0.69999999 -0.033137999 1.0799547e-38 329 267
0.012273333 0.69999999 -0.033137999 1.2267118e-38 330 267
0.013558527 0.70300001 -0.033280019 1.2543704e-38 331 267
0.014812159 0.704 -0.03332736 1.1993401e-38 332 267
0.016092092 0.70599997 -0.033422034 1.1808651e-38 333 267
0.017329946 0.70599997 -0.033422034 1.1810086e-38 334 267
0.0186204 0.708 -0.033516716 1.217851e-38 335 267
0.019917866 0.70999998 -0.033611398 1.3648234e-38 336 267
0.021162732 0.70999998 -0.033611398 1.3924822e-38 337 267
0.022439159 0.71100003 -0.033658739 1.3465266e-38 338 267
0.023685781 0.71100003 -0.033658739 1.6231495e-38 339 267
0.025002534 0.713 -0.033753417 1.9546921e-38 340 267
0.026252659 0.713 -0.033753417 2.2036203e-38 341 267
-0.037503798 0.713 -0.035003547 2.1943286e-38 290 268
-0.036151983 0.71100003 -0.034905359 1.8624243e-38 291 268
-0.034856264 0.70999998 -0.034856264 1.1518355e-38 292 268
-0.033611398 0.70999998 -0.034856264 1.3454464e-38 293 268
-0.03227536 0.708 -0.034758076 1.6960424e-38 294 268
-0.031034 0.708 -0.034758076 1.5669685e-38 295 268
-0.029750559 0.70700002 -0.034708988 1.4924214e-38 296 268
-0.028389972 0.704 -0.034561705 1.3264334e-38 297 268
-0.027155625 0.704 -0.034561705 1.3994672e-38 298 268
-0.025884461 0.70300001 -0.034512613 1.2242957e-38 299 268
-0.024651866 0.70300001 -0.034512613 1.3145829e-38 300 268
-0.023352645 0.70099998 -0.034414422 1.2961438e-38 301 268
-0.022123558 0.70099998 -0.034414422 1.2500112e-38 302 268
-0.020894472 0.70099998 -0.034414422 1.2684503e-38 303 268
-0.019637333 0.69999999 -0.034365334 1.3702262e-38 304 268
-0.018409999 0.69999999 -0.034365334 1.480861e-38 305 268
-0.017182667 0.69999999 -0.034365334 1.4340432e-38 306 268
-0.015955333 0.69999999 -0.034365334 1.4063485e-38 307 268
-0.01468592 0.69800001 -0.034267146 1.204167e-38 308 268
-0.013462093 0.69800001 -0.034267146 1.9325125e-38 309 268
-0.012238266 0.69800001 -0.034267146 1.6783975e-38 310 268
-0.01099866 0.69700003 -0.034218054 1.6415551e-38 311 268
-0.0097765867 0.69700003 -0.034218054 1.5038745e-38 312 268
-0.0085545136 0.69700003 -0.034218054 1.3563615e-38 313 268
-0.00733244 0.69700003 -0.034218054 1.2271807e-38 314 268
-0.0061103669 0.69700003 -0.034218054 1.134949e-38 315 268
-0.0048882933 0.69700003 -0.034218054 1.0983234e-38 316 268
-0.00366622 0.69700003 -0.034218054 1.1444213e-38 317 268
-0.0024441467 0.69700003 -0.034218054 1.1812266e-38 318 268
-0.0012238267 0.69800001 -0.034267146 1.1628235e-38 319 268
0 0.69800001 -0.034267146 1.2179241e-38 320 268
0.0012238267 0.69800001 -0.034267146 1.2179241e-38 321 268
0.0024476533 0.69800001 -0.034267146 1.2546219e-38 322 268
0.00366622 0.69700003 -0.034218054 1.2546219e-38 323 268
0.0048882933 0.69700003 -0.034218054 1.2270708e-38 324 268
0.006119133 0.69800001 -0.034267146 1.2455458e-38 325 268
0.0073429602 0.69800001 -0.034267146 1.3006475e-38 326 268
0.0085667865 0.69800001 -0.034267146 1.2453302e-38 327 268
0.0098186666 0.69999999 -0.034365334 1.2268909e-38 328 268
0.011045999 0.69999999 -0.034365334 1.1900487e-38 329 268
0.012290866 0.70099998 -0.034414422 1.1992682e-38 330 268
0.013577812 0.704 -0.034561705 1.2268909e-38 331 268
0.014812159 0.704 -0.034561705 1.2451855e-38 332 268
0.016092092 0.70599997 -0.034659892 1.2544051e-38 333 268
0.017354494 0.70700002 -0.034708988 1.171789e-38 334 268
0.0186204 0.708 -0.034758076 1.153314e-38 335 268
0.019917866 0.70999998 -0.034856264 1.2269259e-38 336 268
0.021162732 0.70999998 -0.034856264 1.2730598e-38 337 268
0.022439159 0.71100003 -0.034905359 1.2637656e-38 338 268
0.023752406 0.713 -0.035003547 1.6048896e-38 339 268
0.025002534 0.713 -0.035003547 2.0097575e-38 340 268
0.026252659 0.713 -0.035003547 2.2586856e-38 341 268
-0.037503798 0.713 -0.036253672 2.2495736e-38 290 269
-0.036151983 0.71100003 -0.036151983 2.0006096e-38 291 269
-0.034856264 0.70999998 -0.036101133 1.1704173e-38 292 269
-0.033611398 0.70999998 -0.036101133 1.3271858e-38 293 269
-0.03227536 0.708 -0.03599944 1.7241324e-38 294 269
-0.031034 0.708 -0.03599944 1.5766554e-38 295 269
-0.029750559 0.70700002 -0.035948593 1.5114714e-38 296 269
-0.028389972 0.704 -0.035796054 1.225629e-38 297 269
-0.027155625 0.704 -0.035796054 1.1698087e-38 298 269
-0.025884461 0.70300001 -0.035745207 1.4279565e-38 299 269
-0.024651866 0.70300001 -0.035745207 1.5197921e-38 300 269
-0.023352645 0.70099998 -0.035643511 1.3814987e-38 301 269
-0.022123558 0.70099998 -0.035643511 1.2702509e-38 302 269
-0.020894472 0.70099998 -0.035643511 1.0674205e-38 303 269
-0.019637333 0.69999999 -0.035592664 1.2227864e-38 304 269
-0.018409999 0.69999999 -0.035592664 1.1858721e-38 305 269
-0.017182667 0.69999999 -0.035592664 1.3141535e-38 306 269
-0.015955333 0.69999999 -0.035592664 1.2957144e-38 307 269
-0.01468592 0.69800001 -0.035490975 1.139595e-38 308 269
-0.013462093 0.69800001 -0.035490975 1.9324775e-38 309 269
-0.012238266 0.69800001 -0.035490975 1.6508463e-38 310 269
-0.01101444 0.69800001 -0.035490975 1.6140041e-38 311 269
-0.0097906133 0.69800001 -0.035490975 1.5038745e-38 312 269
-0.0085545136 0.69700003 -0.035440128 1.365581e-38 313 269
-0.00733244 0.69700003 -0.035440128 1.2364368e-38 314 269
-0.006119133 0.69800001 -0.035490975 1.1350575e-38 315 269
-0.0048953067 0.69800001 -0.035490975 1.1718999e-38 316 269
-0.0036714801 0.69800001 -0.035490975 1.1903749e-38 317 269
-0.0024476533 0.69800001 -0.035490975 1.1629676e-38 318 269
-0.0012238267 0.69800001 -0.035490975 1.1721873e-38 319 269
0 0.69800001 -0.035490975 1.1813699e-38 320 269
0.0012238267 0.69800001 -0.035490975 1.1721503e-38 321 269
0.0024476533 0.69800001 -0.035490975 1.2362909e-38 322 269
0.0036714801 0.69800001 -0.035490975 1.2455105e-38 323 269
0.0048953067 0.69800001 -0.035490975 1.2362909e-38 324 269
0.006119133 0.69800001 -0.035490975 1.2270355e-38 325 269
0.0073639993 0.69999999 -0.035592664 1.2453304e-38 326 269
0.0085913334 0.69999999 -0.035592664 1.25455e-38 327 269
0.0098326923 0.70099998 -0.035643511 1.2820645e-38 328 269
0.011061779 0.70099998 -0.035643511 1.2451502e-38 329 269
0.012325933 0.70300001 -0.035745207 1.2268909e-38 330 269
0.013577812 0.704 -0.035796054 1.2453302e-38 331 269
0.014854239 0.70599997 -0.035897743 1.2820998e-38 332 269
0.016114887 0.70700002 -0.035948593 1.2544051e-38 333 269
0.017379038 0.708 -0.03599944 1.1348032e-38 334 269
0.018672999 0.70999998 -0.036101133 9.9650972e-39 335 269
0.01994592 0.71100003 -0.036151983 1.0335672e-38 336 269
0.021192541 0.71100003 -0.036151983 1.1534575e-38 337 269
0.022439159 0.71100003 -0.036151983 1.2267796e-38 338 269
0.023752406 0.713 -0.036253672 1.6416958e-38 339 269
0.025037598 0.71399999 -0.036304519 2.0281967e-38 340 269
0.026289478 0.71399999 -0.036304519 2.2586856e-38 341 269
-0.037503798 0.713 -0.037503798 2.2586853e-38 290 270
-0.036151983 0.71100003 -0.037398599 2.0650745e-38 291 270
-0.034856264 0.70999998 -0.037345998 1.5395597e-38 292 270
-0.033611398 0.70999998 -0.037345998 1.5210847e-38 293 270
-0.03227536 0.708 -0.0372408 1.6874344e-38 294 270
-0.031034 0.708 -0.0372408 1.6136779e-38 295 270
-0.029750559 0.70700002 -0.037188202 1.640797e-38 296 270
-0.028389972 0.704 -0.037030395 1.4471862e-38 297 270
-0.027155625 0.704 -0.037030395 1.2356773e-38 298 270
-0.025884461 0.70300001 -0.036977798 1.456947e-38 299 270
-0.024651866 0.70300001 -0.036977798 1.5303087e-38 300 270
-0.023352645 0.70099998 -0.036872596 1.4012348e-38 301 270
-0.022123558 0.70099998 -0.036872596 1.3003212e-38 302 270
-0.020894472 0.70099998 -0.036872596 1.2081616e-38 303 270
-0.019665385 0.70099998 -0.036872596 1.3081016e-38 304 270
-0.018409999 0.69999999 -0.036819998 1.1698082e-38 305 270
-0.017182667 0.69999999 -0.036819998 1.2883287e-38 306 270
-0.015955333 0.69999999 -0.036819998 1.0670592e-38 307 270
-0.014727999 0.69999999 -0.036819998 9.7392976e-39 308 270
-0.013462093 0.69800001 -0.0367148 1.8590078e-38 309 270
-0.012238266 0.69800001 -0.0367148 1.6600663e-38 310 270
-0.01101444 0.69800001 -0.0367148 1.6139685e-38 311 270
-0.0097906133 0.69800001 -0.0367148 1.5130943e-38 312 270
-0.0085667865 0.69800001 -0.0367148 1.3748009e-38 313 270
-0.0073429602 0.69800001 -0.0367148 1.2181412e-38 314 270
-0.006119133 0.69800001 -0.0367148 1.1536042e-38 315 270
-0.0048953067 0.69800001 -0.0367148 1.2731709e-38 316 270
-0.0036714801 0.69800001 -0.0367148 1.2731709e-38 317 270
-0.0024476533 0.69800001 -0.0367148 1.153604e-38 318 270
-0.0012238267 0.69800001 -0.0367148 1.153604e-38 319 270
0 0.69800001 -0.0367148 1.1994141e-38 320 270
0.0012238267 0.69800001 -0.0367148 1.1901945e-38 321 270
0.0024476533 0.69800001 -0.0367148 1.2085614e-38 322 270
0.0036714801 0.69800001 -0.0367148 1.2177809e-38 323 270
0.0048953067 0.69800001 -0.0367148 1.1994497e-38 324 270
0.0061366665 0.69999999 -0.036819998 1.1994497e-38 325 270
0.0073639993 0.69999999 -0.036819998 1.2085967e-38 326 270
0.0085913334 0.69999999 -0.036819998 1.2178162e-38 327 270
0.0098326923 0.70099998 -0.036872596 1.2820642e-38 328 270
0.01109334 0.70300001 -0.036977798 1.2728447e-38 329 270
0.012343466 0.704 -0.037030395 1.2177791e-38 330 270
0.013616386 0.70599997 -0.037135597 1.1624976e-38 331 270
0.014854239 0.70599997 -0.037135597 1.0886702e-38 332 270
0.016114887 0.70700002 -0.037188202 1.0333528e-38 333 270
0.017379038 0.708 -0.0372408 1.0790192e-38 334 270
0.018672999 0.70999998 -0.037345998 1.0882389e-38 335 270
0.01994592 0.71100003 -0.037398599 1.217455e-38 336 270
0.021192541 0.71100003 -0.037398599 1.2543332e-38 337 270
0.022502279 0.713 -0.037503798 1.27259e-38 338 270
0.02378572 0.71399999 -0.037556399 1.6967258e-38 339 270
0.025037598 0.71399999 -0.037556399 2.000754e-38 340 270
0.026289478 0.71399999 -0.037556399 2.2036203e-38 341 270
-0.037503798 0.713 -0.038753927 2.2126248e-38 290 271
-0.036151983 0.71100003 -0.038645219 2.0374531e-38 291 271
-0.034905359 0.71100003 -0.038645219 1.724205e-38 292 271
-0.033611398 0.70999998 -0.038590867 1.7149854e-38 293 271
-0.03227536 0.708 -0.038482159 1.6230059e-38 294 271
-0.031034 0.708 -0.038482159 1.5861636e-38 295 271
-0.029750559 0.70700002 -0.038427804 1.5953845e-38 296 271
-0.028470624 0.70599997 -0.038373452 1.5308475e-38 297 271
-0.027155625 0.704 -0.038264744 1.4389766e-38 298 271
-0.02592128 0.704 -0.038264744 1.5219526e-38 299 271
-0.024651866 0.70300001 -0.038210396 1.5215927e-38 300 271
-0.023419274 0.70300001 -0.038210396 1.429433e-38 301 271
-0.02218668 0.70300001 -0.038210396 1.3656164e-38 302 271
-0.020954086 0.70300001 -0.038210396 1.476251e-38 303 271
-0.019721493 0.70300001 -0.038210396 1.6505946e-38 304 271
-0.018436298 0.70099998 -0.038101684 1.5583989e-38 305 271
-0.017207211 0.70099998 -0.038101684 1.493067e-38 306 271
-0.015955333 0.69999999 -0.038047329 1.1888214e-38 307 271
-0.014727999 0.69999999 -0.038047329 9.84876e-39 308 271
-0.013500666 0.69999999 -0.038047329 1.5196107e-38 309 271
-0.012273333 0.69999999 -0.038047329 1.5958163e-38 310 271
-0.01101444 0.69800001 -0.037938625 1.5865968e-38 311 271
-0.0097906133 0.69800001 -0.037938625 1.5039464e-38 312 271
-0.0085667865 0.69800001 -0.037938625 1.3472498e-38 313 271
-0.0073429602 0.69800001 -0.037938625 1.2364358e-38 314 271
-0.006119133 0.69800001 -0.037938625 1.1995216e-38 315 271
-0.0049093333 0.69999999 -0.038047329 1.282426e-38 316 271
-0.0036714801 0.69800001 -0.037938625 1.2547315e-38 317 271
-0.0024476533 0.69800001 -0.037938625 1.1809752e-38 318 271
-0.0012273333 0.69999999 -0.038047329 1.1533166e-38 319 271
0 0.69999999 -0.038047329 1.1716481e-38 320 271
0.0012273333 0.69999999 -0.038047329 1.1624285e-38 321 271
0.0024476533 0.69800001 -0.037938625 1.1809032e-38 322 271
0.0036714801 0.69800001 -0.037938625 1.2177456e-38 323 271
0.0048953067 0.69800001 -0.037938625 1.1994141e-38 324 271
0.0061366665 0.69999999 -0.038047329 1.2086695e-38 325 271
0.0073639993 0.69999999 -0.038047329 1.2362556e-38 326 271
0.0085913334 0.69999999 -0.038047329 1.190158e-38 327 271
0.0098326923 0.70099998 -0.038101684 1.1993398e-38 328 271
0.01109334 0.70300001 -0.038210396 1.2085594e-38 329 271
0.012343466 0.704 -0.038264744 1.1348029e-38 330 271
0.013616386 0.70599997 -0.038373452 9.8728988e-39 331 271
0.01487528 0.70700002 -0.038427804 8.95276e-39 332 271
0.01613768 0.708 -0.038482159 8.6761731e-39 333 271
0.017428132 0.70999998 -0.038590867 1.0699439e-38 334 271
0.0186993 0.71100003 -0.038645219 1.1805785e-38 335 271
0.020002026 0.713 -0.038753927 1.2451855e-38 336 271
0.021252153 0.713 -0.038753927 1.2451855e-38 337 271
0.022533838 0.71399999 -0.038808275 1.2542235e-38 338 271
0.023852346 0.71600002 -0.038916986 1.6783593e-38 339 271
0.025107734 0.71600002 -0.038916986 2.0100095e-38 340 271
0.026363119 0.71600002 -0.038916986 2.2128399e-38 341 271
-0.036253672 0.713 -0.040004052 1.8901199e-38 291 272
-0.035003547 0.713 -0.040004052 1.6599201e-38 292 272
-0.033611398 0.70999998 -0.039835732 1.6322254e-38 293 272
-0.032366529 0.70999998 -0.039835732 1.5586491e-38 294 272
-0.031121666 0.70999998 -0.039835732 1.5494296e-38 295 272
-0.02979264 0.708 -0.039723519 1.4484477e-38 296 272
-0.028510952 0.70700002 -0.039667413 1.3193738e-38 297 272
-0.027232772 0.70599997 -0.039611302 1.2643086e-38 298 272
-0.02592128 0.704 -0.039499093 1.3933825e-38 299 272
-0.024686933 0.704 -0.039499093 1.4665276e-38 300 272
-0.023419274 0.70300001 -0.039442986 1.3743322e-38 301 272
-0.02218668 0.70300001 -0.039442986 1.2735299e-38 302 272
-0.020983893 0.704 -0.039499093 1.356506e-38 303 272
-0.019749546 0.704 -0.039499093 1.5313893e-38 304 272
-0.018488899 0.70300001 -0.039442986 1.5682315e-38 305 272
-0.017256306 0.70300001 -0.039442986 1.5775923e-38 306 272
-0.015978126 0.70099998 -0.039330769 1.4945804e-38 307 272
-0.014727999 0.69999999 -0.039274666 1.3651828e-38 308 272
-0.013500666 0.69999999 -0.039274666 1.4758176e-38 309 272
-0.012273333 0.69999999 -0.039274666 1.5131296e-38 310 272
-0.011045999 0.69999999 -0.039274666 1.5131296e-38 311 272
-0.0098186666 0.69999999 -0.039274666 1.5039467e-38 312 272
-0.0085667865 0.69800001 -0.039162453 1.3472501e-38 313 272
-0.0073429602 0.69800001 -0.039162453 1.3007204e-38 314 272
-0.0061366665 0.69999999 -0.039274666 1.2730616e-38 315 272
-0.0049093333 0.69999999 -0.039274666 1.3375629e-38 316 272
-0.0036819996 0.69999999 -0.039274666 1.3652576e-38 317 272
-0.0024546667 0.69999999 -0.039274666 1.3283434e-38 318 272
-0.0012273333 0.69999999 -0.039274666 1.3007207e-38 319 272
0 0.69999999 -0.039274666 1.3007923e-38 320 272
0.0012273333 0.69999999 -0.039274666 1.3468901e-38 321 272
0.0024546667 0.69999999 -0.039274666 1.3467826e-38 322 272
0.0036819996 0.69999999 -0.039274666 1.2822457e-38 323 272
0.0049093333 0.69999999 -0.039274666 1.1718983e-38 324 272
0.0061366665 0.69999999 -0.039274666 1.2087765e-38 325 272
0.0073745195 0.70099998 -0.039330769 1.3095803e-38 326 272
0.0086036054 0.70099998 -0.039330769 1.1344087e-38 327 272
0.0098607466 0.70300001 -0.039442986 7.7614068e-39 328 272
0.011109119 0.704 -0.039499093 7.8536039e-39 329 272
0.012343466 0.704 -0.039499093 8.5868529e-39 330 272
0.013616386 0.70599997 -0.039611302 8.5868529e-39 331 272
0.01487528 0.70700002 -0.039667413 1.1440241e-38 332 272
0.01613768 0.708 -0.039723519 1.125621e-38 333 272
0.01745268 0.71100003 -0.039891839 1.162354e-38 334 272
0.018751899 0.713 -0.040004052 1.1992682e-38 335 272
0.020002026 0.713 -0.040004052 1.2176345e-38 336 272
0.021281958 0.71399999 -0.040060159 1.1715367e-38 337 272
0.022596961 0.71600002 -0.040172372 1.1898666e-38 338 272
0.023852346 0.71600002 -0.040172372 1.6508448e-38 339 272
0.025107734 0.71600002 -0.040172372 2.0467803e-38 340 272
0.026363119 0.71600002 -0.040172372 2.2496106e-38 341 272
-0.036253672 0.713 -0.041254178 1.7241672e-38 291 273
-0.035003547 0.713 -0.041254178 1.5308813e-38 292 273
-0.033658739 0.71100003 -0.041138459 1.558504e-38 293 273
-0.032412119 0.71100003 -0.041138459 1.5586138e-38 294 273
-0.031121666 0.70999998 -0.041080594 1.577053e-38 295 273
-0.029876797 0.70999998 -0.041080594 1.5035486e-38 296 273
-0.02855128 0.708 -0.040964879 1.4205723e-38 297 273
-0.027232772 0.70599997 -0.040849157 1.4204286e-38 298 273
-0.02592128 0.704 -0.040733438 1.4204286e-38 299 273
-0.024686933 0.704 -0.040733438 1.4203577e-38 300 273
-0.023419274 0.70300001 -0.040675577 1.4111381e-38 301 273
-0.02218668 0.70300001 -0.040675577 1.3561097e-38 302 273
-0.020983893 0.704 -0.040733438 1.3468901e-38 303 273
-0.019749546 0.704 -0.040733438 1.310444e-38 304 273
-0.018515198 0.704 -0.040733438 1.3933842e-38 305 273
-0.017256306 0.70300001 -0.040675577 1.5684833e-38 306 273
-0.016023712 0.70300001 -0.040675577 1.6053976e-38 307 273
-0.014749039 0.70099998 -0.040559858 1.5500802e-38 308 273
-0.013519952 0.70099998 -0.040559858 1.5132018e-38 309 273
-0.012273333 0.69999999 -0.040502001 1.5130943e-38 310 273
-0.011045999 0.69999999 -0.040502001 1.5130943e-38 311 273
-0.0098186666 0.69999999 -0.040502001 1.5223495e-38 312 273
-0.0085913334 0.69999999 -0.040502001 1.3748006e-38 313 273
-0.0073639993 0.69999999 -0.040502001 1.2455471e-38 314 273
-0.0061366665 0.69999999 -0.040502001 1.0888505e-38 315 273
-0.0049093333 0.69999999 -0.040502001 1.1901226e-38 316 273
-0.0036819996 0.69999999 -0.040502001 1.3099768e-38 317 273
-0.0024546667 0.69999999 -0.040502001 1.2546601e-38 318 273
-0.0012273333 0.69999999 -0.040502001 1.2085263e-38 319 273
0 0.69999999 -0.040502001 1.1814066e-38 320 273
0.0012273333 0.69999999 -0.040502001 1.2275042e-38 321 273
0.0024546667 0.69999999 -0.040502001 1.3102274e-38 322 273
0.0036819996 0.69999999 -0.040502001 1.1719339e-38 323 273
0.0049093333 0.69999999 -0.040502001 9.6020726e-39 324 273
0.0061454331 0.70099998 -0.040559858 9.8786609e-39 325 273
0.0073745195 0.70099998 -0.040559858 1.1624623e-38 326 273
0.0086281532 0.70300001 -0.040675577 1.0979253e-38 327 273
0.0098607466 0.70300001 -0.040675577 7.944003e-39 328 273
0.011109119 0.704 -0.040733438 8.2202312e-39 329 273
0.012378532 0.70599997 -0.040849157 9.414464e-39 330 273
0.013616386 0.70599997 -0.040849157 1.0059833e-38 331 273
0.01487528 0.70700002 -0.040907022 1.2360756e-38 332 273
0.01613768 0.708 -0.040964879 1.2452951e-38 333 273
0.01745268 0.71100003 -0.041138459 1.2267824e-38 334 273
0.018751899 0.713 -0.041254178 1.2267824e-38 335 273
0.020030079 0.71399999 -0.041312039 1.1992307e-38 336 273
0.021281958 0.71399999 -0.041312039 1.1807917e-38 337 273
0.022596961 0.71600002 -0.041427758 1.2266727e-38 338 273
0.02388566 0.71700001 -0.041485619 1.6784312e-38 339 273
0.0251428 0.71700001 -0.041485619 2.0009343e-38 340 273
0.02639994 0.71700001 -0.041485619 2.2037646e-38 341 273
-0.036406212 0.71600002 -0.042683143 1.5952733e-38 291 274
-0.035052639 0.71399999 -0.042563915 1.0425334e-38 292 274
-0.033800758 0.71399999 -0.042563915 1.2177051e-38 293 274
-0.032503292 0.713 -0.042504307 1.4387242e-38 294 274
-0.031165501 0.71100003 -0.042385083 1.5677981e-38 295 274
-0.029876797 0.70999998 -0.042325463 1.5863447e-38 296 274
