# .PCD v.7 - Point Cloud Data file format
FIELDS x y z rgb imX imY
SIZE 4 4 4 4 4 4
TYPE F F F F F F
COUNT 1 1 1 1 1 1
WIDTH 834
HEIGHT 1
VIEWPOINT 0 0 0 1 0 0 0
POINTS 834
DATA ascii
-0.0012220733 0.69700003 -0.03299598 1.2178888e-38 319 267
0 0.69700003 -0.03299598 1.1257651e-38 320 267
0.0012220733 0.69700003 -0.03299598 1.1349846e-38 321 267
0.0024441467 0.69700003 -0.03299598 1.1350923e-38 322 267
0.00366622 0.69700003 -0.03299598 1.1627509e-38 323 267
0.0048882933 0.69700003 -0.03299598 1.2361837e-38 324 267
0.0061103669 0.69700003 -0.03299598 1.2177087e-38 325 267
0.0073429602 0.69800001 -0.033043321 1.2820658e-38 326 267
0.0085667865 0.69800001 -0.033043321 1.236004e-38 327 267
0.0097906133 0.69800001 -0.033043321 1.1074333e-38 328 267
0.011045999 0.69999999 -0.033137999 1.1166528e-38 329 267
0.012273333 0.69999999 -0.033137999 1.2267471e-38 330 267
0.013558527 0.70300001 -0.033280019 1.2451502e-38 331 267
0.014812159 0.704 -0.03332736 1.1993398e-38 332 267
0.016092092 0.70599997 -0.033422034 1.1901203e-38 333 267
0.017329946 0.70599997 -0.033422034 1.2543688e-38 334 267
0.018594101 0.70700002 -0.033469379 1.2635884e-38 335 267
0.01986176 0.708 -0.033516716 1.3187254e-38 336 267
0.021162732 0.70999998 -0.033611398 1.3740428e-38 337 267
0.022439159 0.71100003 -0.033658739 1.3098281e-38 338 267
0.023685781 0.71100003 -0.033658739 1.586415e-38 339 267
0.025037598 0.71399999 -0.033800758 1.9637682e-38 340 267
-0.038808275 0.71399999 -0.035052639 2.3141106e-38 289 268
-0.037503798 0.713 -0.035003547 2.2403538e-38 290 268
-0.036151983 0.71100003 -0.034905359 1.9453278e-38 291 268
-0.034905359 0.71100003 -0.034905359 1.1886419e-38 292 268
-0.033611398 0.70999998 -0.034856264 1.124105e-38 293 268
-0.032366529 0.70999998 -0.034856264 1.6682759e-38 294 268
-0.031034 0.708 -0.034758076 1.603739e-38 295 268
-0.02979264 0.708 -0.034758076 1.5386631e-38 296 268
-0.028510952 0.70700002 -0.034708988 1.3358327e-38 297 268
-0.027155625 0.704 -0.034561705 1.3993617e-38 298 268
-0.02592128 0.704 -0.034561705 1.2518846e-38 299 268
-0.024651866 0.70300001 -0.034512613 1.2966482e-38 300 268
-0.023419274 0.70300001 -0.034512613 1.2228917e-38 301 268
-0.02218668 0.70300001 -0.034512613 1.2410062e-38 302 268
-0.020894472 0.70099998 -0.034414422 1.2410062e-38 303 268
-0.019637333 0.69999999 -0.034365334 1.361077e-38 304 268
-0.018409999 0.69999999 -0.034365334 1.5086259e-38 305 268
-0.017182667 0.69999999 -0.034365334 1.4066709e-38 306 268
-0.015955333 0.69999999 -0.034365334 1.3052917e-38 307 268
-0.01468592 0.69800001 -0.034267146 1.2765196e-38 308 268
-0.013462093 0.69800001 -0.034267146 1.8017477e-38 309 268
-0.012238266 0.69800001 -0.034267146 1.576766e-38 310 268
-0.01099866 0.69700003 -0.034218054 1.678181e-38 311 268
-0.0097765867 0.69700003 -0.034218054 1.5039101e-38 312 268
-0.0085545136 0.69700003 -0.034218054 1.4393731e-38 313 268
-0.00733244 0.69700003 -0.034218054 1.3010088e-38 314 268
-0.006119133 0.69800001 -0.034267146 1.1719708e-38 315 268
-0.0048953067 0.69800001 -0.034267146 1.0984306e-38 316 268
-0.0036714801 0.69800001 -0.034267146 1.1076503e-38 317 268
-0.0024476533 0.69800001 -0.034267146 1.1812622e-38 318 268
-0.0012238267 0.69800001 -0.034267146 1.2089211e-38 319 268
0 0.69800001 -0.034267146 1.2731333e-38 320 268
0.0012238267 0.69800001 -0.034267146 1.2455105e-38 321 268
0.0024476533 0.69800001 -0.034267146 1.2177441e-38 322 268
0.00366622 0.69700003 -0.034218054 1.2177441e-38 323 268
0.0048882933 0.69700003 -0.034218054 1.2821011e-38 324 268
0.006119133 0.69800001 -0.034267146 1.2728815e-38 325 268
0.0073429602 0.69800001 -0.034267146 1.25455e-38 326 268
0.0085667865 0.69800001 -0.034267146 1.25455e-38 327 268
0.0098186666 0.69999999 -0.034365334 1.1993045e-38 328 268
0.011045999 0.69999999 -0.034365334 1.190085e-38 329 268
0.012290866 0.70099998 -0.034414422 1.1901205e-38 330 268
0.013577812 0.704 -0.034561705 1.1901205e-38 331 268
0.014812159 0.704 -0.034561705 1.2451855e-38 332 268
0.016092092 0.70599997 -0.034659892 1.2451855e-38 333 268
0.017354494 0.70700002 -0.034708988 1.2360739e-38 334 268
0.0186204 0.708 -0.034758076 1.1715369e-38 335 268
0.019917866 0.70999998 -0.034856264 1.1347663e-38 336 268
0.021162732 0.70999998 -0.034856264 1.2454011e-38 337 268
0.022439159 0.71100003 -0.034905359 1.2912813e-38 338 268
0.023685781 0.71100003 -0.034905359 1.613966e-38 339 268
0.025037598 0.71399999 -0.035052639 2.0188693e-38 340 268
-0.038808275 0.71399999 -0.036304519 2.2956359e-38 289 269
-0.037556399 0.71399999 -0.036304519 2.2495736e-38 290 269
-0.036253672 0.713 -0.036253672 2.0375237e-38 291 269
-0.034905359 0.71100003 -0.036151983 1.2437813e-38 292 269
-0.033611398 0.70999998 -0.036101133 1.0501705e-38 293 269
-0.032366529 0.70999998 -0.036101133 1.7329945e-38 294 269
-0.031121666 0.70999998 -0.036101133 1.6684576e-38 295 269
-0.02979264 0.708 -0.03599944 1.5668238e-38 296 269
-0.028510952 0.70700002 -0.035948593 1.2625782e-38 297 269
-0.027155625 0.704 -0.035796054 1.1787765e-38 298 269
-0.02592128 0.704 -0.035796054 1.3816069e-38 299 269
-0.024651866 0.70300001 -0.035745207 1.4461082e-38 300 269
-0.023419274 0.70300001 -0.035745207 1.3631321e-38 301 269
-0.02218668 0.70300001 -0.035745207 1.2887973e-38 302 269
-0.020894472 0.70099998 -0.035643511 1.0767474e-38 303 269
-0.019665385 0.70099998 -0.035643511 1.1858705e-38 304 269
-0.018409999 0.69999999 -0.035592664 1.112114e-38 305 269
-0.017182667 0.69999999 -0.035592664 1.2955692e-38 306 269
-0.015955333 0.69999999 -0.035592664 1.3140444e-38 307 269
-0.014727999 0.69999999 -0.035592664 1.2122346e-38 308 269
-0.013462093 0.69800001 -0.035490975 1.7650139e-38 309 269
-0.012238266 0.69800001 -0.035490975 1.558327e-38 310 269
-0.01101444 0.69800001 -0.035490975 1.6781813e-38 311 269
-0.0097906133 0.69800001 -0.035490975 1.5314612e-38 312 269
-0.0085667865 0.69800001 -0.035490975 1.4577047e-38 313 269
-0.0073429602 0.69800001 -0.035490975 1.2918977e-38 314 269
-0.006119133 0.69800001 -0.035490975 1.1812269e-38 315 269
-0.0048953067 0.69800001 -0.035490975 1.0893557e-38 316 269
-0.0036714801 0.69800001 -0.035490975 1.0893557e-38 317 269
-0.0024476533 0.69800001 -0.035490975 1.1812266e-38 318 269
-0.0012238267 0.69800001 -0.035490975 1.2273605e-38 319 269
0 0.69800001 -0.035490975 1.2915011e-38 320 269
0.0012238267 0.69800001 -0.035490975 1.273026e-38 321 269
0.0024476533 0.69800001 -0.035490975 1.2820658e-38 322 269
0.0036714801 0.69800001 -0.035490975 1.2820658e-38 323 269
0.0048953067 0.69800001 -0.035490975 1.2637701e-38 324 269
0.006119133 0.69800001 -0.035490975 1.2545147e-38 325 269
0.0073639993 0.69999999 -0.035592664 1.2269636e-38 326 269
0.0085913334 0.69999999 -0.035592664 1.2177441e-38 327 269
0.0098186666 0.69999999 -0.035592664 1.2085246e-38 328 269
0.011061779 0.70099998 -0.035643511 1.1993051e-38 329 269
0.012325933 0.70300001 -0.035745207 1.2084881e-38 330 269
0.013577812 0.704 -0.035796054 1.2084881e-38 331 269
0.014854239 0.70599997 -0.035897743 1.2912468e-38 332 269
0.016092092 0.70599997 -0.035897743 1.2912468e-38 333 269
0.017354494 0.70700002 -0.035948593 1.2359294e-38 334 269
0.0186204 0.708 -0.03599944 1.1068555e-38 335 269
0.019917866 0.70999998 -0.036101133 9.688862e-39 336 269
0.021162732 0.70999998 -0.036101133 1.1256186e-38 337 269
0.022439159 0.71100003 -0.036151983 1.2726982e-38 338 269
0.023752406 0.713 -0.036253672 1.6691394e-38 339 269
0.025037598 0.71399999 -0.036304519 2.0097578e-38 340 269
0.026289478 0.71399999 -0.036304519 2.2678697e-38 341 269
-0.037556399 0.71399999 -0.037556399 2.2771965e-38 290 270
-0.036253672 0.713 -0.037503798 2.1020606e-38 291 270
-0.034905359 0.71100003 -0.037398599 1.5486753e-38 292 270
-0.033611398 0.70999998 -0.037345998 1.3090025e-38 293 270
-0.032366529 0.70999998 -0.037345998 1.6689259e-38 294 270
-0.031121666 0.70999998 -0.037345998 1.6320835e-38 295 270
-0.02979264 0.708 -0.0372408 1.6317201e-38 296 270
-0.028510952 0.70700002 -0.037188202 1.4381093e-38 297 270
-0.027232772 0.70599997 -0.037135597 1.2722313e-38 298 270
-0.02592128 0.704 -0.037030395 1.4566226e-38 299 270
-0.024686933 0.704 -0.037030395 1.5210176e-38 300 270
-0.023419274 0.70300001 -0.036977798 1.4380055e-38 301 270
-0.02218668 0.70300001 -0.036977798 1.2911743e-38 302 270
-0.020954086 0.70300001 -0.036977798 1.1989786e-38 303 270
-0.019665385 0.70099998 -0.036872596 1.2623636e-38 304 270
-0.018436298 0.70099998 -0.036872596 1.0964115e-38 305 270
-0.017207211 0.70099998 -0.036872596 1.2608865e-38 306 270
-0.015955333 0.69999999 -0.036819998 1.0857148e-38 307 270
-0.014727999 0.69999999 -0.036819998 1.0652972e-38 308 270
-0.013500666 0.69999999 -0.036819998 1.6457351e-38 309 270
-0.012273333 0.69999999 -0.036819998 1.5399958e-38 310 270
-0.011045999 0.69999999 -0.036819998 1.6598142e-38 311 270
-0.0098186666 0.69999999 -0.036819998 1.5590119e-38 312 270
-0.0085667865 0.69800001 -0.0367148 1.494475e-38 313 270
-0.0073429602 0.69800001 -0.0367148 1.3010094e-38 314 270
-0.0061366665 0.69999999 -0.036819998 1.181155e-38 315 270
-0.0049093333 0.69999999 -0.036819998 1.1628601e-38 316 270
-0.0036714801 0.69800001 -0.0367148 1.1813352e-38 317 270
-0.0024476533 0.69800001 -0.0367148 1.1996662e-38 318 270
-0.0012273333 0.69999999 -0.036819998 1.1536042e-38 319 270
0 0.69800001 -0.0367148 1.2452248e-38 320 270
0.0012238267 0.69800001 -0.0367148 1.2083824e-38 321 270
0.0024476533 0.69800001 -0.0367148 1.2083824e-38 322 270
0.0036714801 0.69800001 -0.0367148 1.2083824e-38 323 270
0.0048953067 0.69800001 -0.0367148 1.2177093e-38 324 270
0.006119133 0.69800001 -0.0367148 1.2269289e-38 325 270
0.0073639993 0.69999999 -0.036819998 1.199485e-38 326 270
0.0085913334 0.69999999 -0.036819998 1.199485e-38 327 270
0.0098326923 0.70099998 -0.036872596 1.2360033e-38 328 270
0.011061779 0.70099998 -0.036872596 1.2360033e-38 329 270
0.012343466 0.704 -0.037030395 1.2542982e-38 330 270
0.013616386 0.70599997 -0.037135597 1.2266395e-38 331 270
0.014854239 0.70599997 -0.037135597 1.1620657e-38 332 270
0.016114887 0.70700002 -0.037188202 1.1896884e-38 333 270
0.017379038 0.708 -0.0372408 1.1526662e-38 334 270
0.018672999 0.70999998 -0.037345998 1.1803249e-38 335 270
0.019917866 0.70999998 -0.037345998 1.1713569e-38 336 270
0.021192541 0.71100003 -0.037398599 1.2174547e-38 337 270
0.022502279 0.713 -0.037503798 1.3553502e-38 338 270
0.02378572 0.71399999 -0.037556399 1.7517914e-38 339 270
0.025037598 0.71399999 -0.037556399 1.9822786e-38 340 270
0.026289478 0.71399999 -0.037556399 2.2403904e-38 341 270
-0.037556399 0.71399999 -0.038808275 2.2311358e-38 290 271
-0.036253672 0.713 -0.038753927 2.0744392e-38 291 271
-0.034905359 0.71100003 -0.038645219 1.6691397e-38 292 271
-0.033611398 0.70999998 -0.038590867 1.5953832e-38 293 271
-0.032366529 0.70999998 -0.038590867 1.5864153e-38 294 271
-0.031121666 0.70999998 -0.038590867 1.5403176e-38 295 271
-0.02979264 0.708 -0.038482159 1.5769085e-38 296 271
-0.028510952 0.70700002 -0.038427804 1.5031518e-38 297 271
-0.027271347 0.70700002 -0.038427804 1.4572712e-38 298 271
-0.025994917 0.70599997 -0.038373452 1.5494669e-38 299 271
-0.024686933 0.704 -0.038264744 1.5675833e-38 300 271
-0.023419274 0.70300001 -0.038210396 1.4938266e-38 301 271
-0.02218668 0.70300001 -0.038210396 1.3470699e-38 302 271
-0.020954086 0.70300001 -0.038210396 1.4208264e-38 303 271
-0.019721493 0.70300001 -0.038210396 1.5863101e-38 304 271
-0.018488899 0.70300001 -0.038210396 1.5494318e-38 305 271
-0.017256306 0.70300001 -0.038210396 1.5209427e-38 306 271
-0.015978126 0.70099998 -0.038101684 1.2166971e-38 307 271
-0.014727999 0.69999999 -0.038047329 9.2048367e-39 308 271
-0.013500666 0.69999999 -0.038047329 1.1970706e-38 309 271
-0.012273333 0.69999999 -0.038047329 1.5125166e-38 310 271
-0.011045999 0.69999999 -0.038047329 1.6231155e-38 311 271
-0.0098186666 0.69999999 -0.038047329 1.5406086e-38 312 271
-0.0085667865 0.69800001 -0.037938625 1.4944747e-38 313 271
-0.0073429602 0.69800001 -0.037938625 1.3285599e-38 314 271
-0.0061366665 0.69999999 -0.038047329 1.1626437e-38 315 271
-0.0049093333 0.69999999 -0.038047329 1.1902664e-38 316 271
-0.0036714801 0.69800001 -0.037938625 1.2732784e-38 317 271
-0.0024476533 0.69800001 -0.037938625 1.282246e-38 318 271
-0.0012273333 0.69999999 -0.038047329 1.1531721e-38 319 271
0 0.69800001 -0.037938625 1.1532089e-38 320 271
0.0012238267 0.69800001 -0.037938625 1.1439894e-38 321 271
0.0024476533 0.69800001 -0.037938625 1.1716481e-38 322 271
0.0036714801 0.69800001 -0.037938625 1.1901232e-38 323 271
0.0048953067 0.69800001 -0.037938625 1.2362556e-38 324 271
0.0061366665 0.69999999 -0.038047329 1.2546948e-38 325 271
0.0073639993 0.69999999 -0.038047329 1.2179241e-38 326 271
0.0086036054 0.70099998 -0.038101684 1.2087046e-38 327 271
0.0098326923 0.70099998 -0.038101684 1.1900852e-38 328 271
0.01109334 0.70300001 -0.038210396 1.1624267e-38 329 271
0.012343466 0.704 -0.038264744 1.2172757e-38 330 271
0.013616386 0.70599997 -0.038373452 1.1711419e-38 331 271
0.01487528 0.70700002 -0.038427804 1.115825e-38 332 271
0.016114887 0.70700002 -0.038427804 1.115825e-38 333 271
0.017428132 0.70999998 -0.038590867 1.1160401e-38 334 271
0.0186993 0.71100003 -0.038645219 1.1990161e-38 335 271
0.01994592 0.71100003 -0.038645219 1.2819193e-38 336 271
0.021252153 0.713 -0.038753927 1.2726998e-38 337 271
0.022533838 0.71399999 -0.038808275 1.3186884e-38 338 271
0.023852346 0.71600002 -0.038916986 1.7059101e-38 339 271
0.025107734 0.71600002 -0.038916986 2.0006822e-38 340 271
0.026363119 0.71600002 -0.038916986 2.2496104e-38 341 271
-0.037556399 0.71399999 -0.040060159 2.1298282e-38 290 272
-0.036253672 0.713 -0.040004052 1.9362174e-38 291 272
-0.034905359 0.71100003 -0.039891839 1.6507003e-38 292 272
-0.033658739 0.71100003 -0.039891839 1.6230056e-38 293 272
-0.032412119 0.71100003 -0.039891839 1.5495372e-38 294 272
-0.031121666 0.70999998 -0.039835732 1.5310981e-38 295 272
-0.029876797 0.70999998 -0.039835732 1.4759973e-38 296 272
-0.02855128 0.708 -0.039723519 1.3377039e-38 297 272
-0.027271347 0.70700002 -0.039667413 1.2276452e-38 298 272
-0.025994917 0.70599997 -0.039611302 1.3290605e-38 299 272
-0.024686933 0.704 -0.039499093 1.5032617e-38 300 272
-0.023452586 0.704 -0.039499093 1.4479443e-38 301 272
-0.022218239 0.704 -0.039499093 1.3468545e-38 302 272
-0.020983893 0.704 -0.039499093 1.3653295e-38 303 272
-0.019749546 0.704 -0.039499093 1.5036227e-38 304 272
-0.018515198 0.704 -0.039499093 1.5681596e-38 305 272
-0.017256306 0.70300001 -0.039442986 1.5591902e-38 306 272
-0.016023712 0.70300001 -0.039442986 1.4946534e-38 307 272
-0.014749039 0.70099998 -0.039330769 1.3744747e-38 308 272
-0.013519952 0.70099998 -0.039330769 1.3652551e-38 309 272
-0.012273333 0.69999999 -0.039274666 1.5127334e-38 310 272
-0.011045999 0.69999999 -0.039274666 1.5680149e-38 311 272
-0.0098186666 0.69999999 -0.039274666 1.540681e-38 312 272
-0.0085913334 0.69999999 -0.039274666 1.4853636e-38 313 272
-0.0073639993 0.69999999 -0.039274666 1.3102642e-38 314 272
-0.0061366665 0.69999999 -0.039274666 1.1719708e-38 315 272
-0.0049093333 0.69999999 -0.039274666 1.2457267e-38 316 272
-0.0036819996 0.69999999 -0.039274666 1.3471418e-38 317 272
-0.0024546667 0.69999999 -0.039274666 1.3560731e-38 318 272
-0.0012273333 0.69999999 -0.039274666 1.2823166e-38 319 272
0 0.69800001 -0.039162453 1.291608e-38 320 272
0.0012238267 0.69800001 -0.039162453 1.3100472e-38 321 272
0.0024476533 0.69800001 -0.039162453 1.282568e-38 322 272
0.0036819996 0.69999999 -0.039274666 1.2917875e-38 323 272
0.0049093333 0.69999999 -0.039274666 1.2638415e-38 324 272
0.0061366665 0.69999999 -0.039274666 1.1624623e-38 325 272
0.0073745195 0.70099998 -0.039330769 1.1991976e-38 326 272
0.0086036054 0.70099998 -0.039330769 1.2360758e-38 327 272
0.0098607466 0.70300001 -0.039442986 9.7832437e-39 328 272
0.011109119 0.704 -0.039499093 8.6772549e-39 329 272
0.012378532 0.70599997 -0.039611302 1.1522369e-38 330 272
0.013616386 0.70599997 -0.039611302 1.1890792e-38 331 272
0.01487528 0.70700002 -0.039667413 1.1806133e-38 332 272
0.01613768 0.708 -0.039723519 1.1990884e-38 333 272
0.017428132 0.70999998 -0.039835732 1.1533849e-38 334 272
0.0186993 0.71100003 -0.039891839 1.1626045e-38 335 272
0.020002026 0.713 -0.040004052 1.2726998e-38 336 272
0.021281958 0.71399999 -0.040060159 1.226638e-38 337 272
0.022596961 0.71600002 -0.040172372 1.1899741e-38 338 272
0.023852346 0.71600002 -0.040172372 1.6048546e-38 339 272
0.025107734 0.71600002 -0.040172372 2.0283051e-38 340 272
0.026363119 0.71600002 -0.040172372 2.2496106e-38 341 272
-0.037661601 0.71600002 -0.041427758 2.083838e-38 290 273
-0.036253672 0.713 -0.041254178 1.7703729e-38 291 273
-0.035003547 0.713 -0.041254178 1.5862337e-38 292 273
-0.033753417 0.713 -0.041254178 1.5954533e-38 293 273
-0.032503292 0.713 -0.041254178 1.5311697e-38 294 273
-0.031165501 0.71100003 -0.041138459 1.5403892e-38 295 273
-0.029876797 0.70999998 -0.041080594 1.5221302e-38 296 273
-0.02855128 0.708 -0.040964879 1.4207151e-38 297 273
-0.027271347 0.70700002 -0.040907022 1.3837999e-38 298 273
-0.025994917 0.70599997 -0.040849157 1.3745803e-38 299 273
-0.024686933 0.704 -0.040733438 1.3930213e-38 300 273
-0.023452586 0.704 -0.040733438 1.3837658e-38 301 273
-0.022218239 0.704 -0.040733438 1.4019907e-38 302 273
-0.020983893 0.704 -0.040733438 1.3835876e-38 303 273
-0.019749546 0.704 -0.040733438 1.3836607e-38 304 273
-0.018515198 0.704 -0.040733438 1.420575e-38 305 273
-0.017280852 0.704 -0.040733438 1.5681243e-38 306 273
-0.016023712 0.70300001 -0.040675577 1.6787591e-38 307 273
-0.014791119 0.70300001 -0.040675577 1.6144372e-38 308 273
-0.013519952 0.70099998 -0.040559858 1.5499003e-38 309 273
-0.012290866 0.70099998 -0.040559858 1.5406441e-38 310 273
-0.011045999 0.69999999 -0.040502001 1.5314246e-38 311 273
-0.0098186666 0.69999999 -0.040502001 1.5222416e-38 312 273
-0.0085913334 0.69999999 -0.040502001 1.494583e-38 313 273
-0.0073639993 0.69999999 -0.040502001 1.2917892e-38 314 273
-0.0061366665 0.69999999 -0.040502001 9.9679909e-39 315 273
-0.0049093333 0.69999999 -0.040502001 1.1071462e-38 316 273
-0.0036819996 0.69999999 -0.040502001 1.300757e-38 317 273
-0.0024546667 0.69999999 -0.040502001 1.364826e-38 318 273
-0.0012273333 0.69999999 -0.040502001 1.3095087e-38 319 273
0 0.69999999 -0.040502001 1.3648611e-38 320 273
0.0012273333 0.69999999 -0.040502001 1.4017033e-38 321 273
0.0024546667 0.69999999 -0.040502001 1.346673e-38 322 273
0.0036819996 0.69999999 -0.040502001 1.3282339e-38 323 273
0.0049093333 0.69999999 -0.040502001 1.0339287e-38 324 273
0.0061454331 0.70099998 -0.040559858 9.0485485e-39 325 273
0.0073745195 0.70099998 -0.040559858 1.0151303e-38 326 273
0.0086281532 0.70300001 -0.040675577 1.0981065e-38 327 273
0.0098607466 0.70300001 -0.040675577 1.042752e-38 328 273
0.011109119 0.704 -0.040733438 1.0058739e-38 329 273
0.012378532 0.70599997 -0.040849157 1.0977807e-38 330 273
0.013616386 0.70599997 -0.040849157 1.1438427e-38 331 273
0.01487528 0.70700002 -0.040907022 1.2268175e-38 332 273
0.01613768 0.708 -0.040964879 1.2636957e-38 333 273
0.017428132 0.70999998 -0.041080594 1.2544757e-38 334 273
0.018751899 0.713 -0.041254178 1.2268172e-38 335 273
0.020030079 0.71399999 -0.041312039 1.2451487e-38 336 273
0.021281958 0.71399999 -0.041312039 1.2267096e-38 337 273
0.022596961 0.71600002 -0.041427758 1.2726982e-38 338 273
0.023852346 0.71600002 -0.041427758 1.6691394e-38 339 273
0.025107734 0.71600002 -0.041427758 1.9824228e-38 340 273
0.026363119 0.71600002 -0.041427758 2.231351e-38 341 273
-0.037661601 0.71600002 -0.042683143 2.0655068e-38 290 274
-0.036304519 0.71399999 -0.042563915 1.6690296e-38 291 274
-0.035052639 0.71399999 -0.042563915 9.7828359e-39 292 274
-0.033800758 0.71399999 -0.042563915 1.1534553e-38 293 274
-0.032548878 0.71399999 -0.042563915 1.4204651e-38 294 274
-0.031253166 0.713 -0.042504307 1.4942216e-38 295 274
-0.029918881 0.71100003 -0.042385083 1.5495387e-38 296 274
-0.028631933 0.70999998 -0.042325463 1.5587583e-38 297 274
-0.027309919 0.708 -0.042206239 1.6045321e-38 298 274
-0.02603174 0.70700002 -0.042146627 1.43858e-38 299 274
-0.024757065 0.70599997 -0.042087011 1.3007908e-38 300 274
-0.023452586 0.704 -0.041967787 1.3561081e-38 301 274
-0.022218239 0.704 -0.041967787 1.4572362e-38 302 274
-0.021043506 0.70599997 -0.042087011 1.4756753e-38 303 274
-0.019749546 0.704 -0.041967787 1.2915008e-38 304 274
-0.018515198 0.704 -0.041967787 1.2822813e-38 305 274
-0.017280852 0.704 -0.041967787 1.3748012e-38 306 274
-0.016046507 0.704 -0.041967787 1.4761804e-38 307 274
-0.014791119 0.70300001 -0.041908171 1.5223861e-38 308 274
-0.013558527 0.70300001 -0.041908171 1.5039469e-38 309 274
-0.012290866 0.70099998 -0.041788943 1.4855435e-38 310 274
-0.011061779 0.70099998 -0.041788943 1.4855435e-38 311 274
-0.0098326923 0.70099998 -0.041788943 1.4855435e-38 312 274
-0.0085913334 0.69999999 -0.041729331 1.4670685e-38 313 274
-0.0073639993 0.69999999 -0.041729331 1.2366519e-38 314 274
-0.0061366665 0.69999999 -0.041729331 7.8489333e-39 315 274
-0.0049093333 0.69999999 -0.041729331 6.1879869e-39 316 274
-0.0036819996 0.69999999 -0.041729331 6.3723781e-39 317 274
-0.0024546667 0.69999999 -0.041729331 9.2164017e-39 318 274
-0.0012273333 0.69999999 -0.041729331 9.7695754e-39 319 274
0 0.69999999 -0.041729331 1.0410255e-38 320 274
0.0012273333 0.69999999 -0.041729331 1.0779036e-38 321 274
0.0024546667 0.69999999 -0.041729331 1.0600054e-38 322 274
0.0036819996 0.69999999 -0.041729331 1.2628357e-38 323 274
0.0049163462 0.70099998 -0.041788943 8.6859009e-39 324 274
0.0061454331 0.70099998 -0.041788943 7.4877164e-39 325 274
0.0073955595 0.70300001 -0.041908171 1.033642e-38 326 274
0.0086281532 0.70300001 -0.041908171 1.1719355e-38 327 274
0.0098747732 0.704 -0.041967787 1.1718253e-38 328 274
0.011109119 0.704 -0.041967787 1.1442027e-38 329 274
0.012378532 0.70599997 -0.042087011 1.180936e-38 330 274
0.013616386 0.70599997 -0.042087011 1.1993751e-38 331 274
0.01487528 0.70700002 -0.042146627 1.2637323e-38 332 274
0.016183265 0.70999998 -0.042325463 1.2453292e-38 333 274
0.01745268 0.71100003 -0.042385083 1.2360736e-38 334 274
0.018751899 0.713 -0.042504307 1.2176345e-38 335 274
0.020030079 0.71399999 -0.042563915 1.2819549e-38 336 274
0.021341572 0.71600002 -0.042683143 1.2911746e-38 337 274
0.022596961 0.71600002 -0.042683143 1.355602e-38 338 274
0.02388566 0.71700001 -0.042742759 1.6967258e-38 339 274
0.0251428 0.71700001 -0.042742759 1.9639115e-38 340 274
0.02639994 0.71700001 -0.042742759 2.2497178e-38 341 274
-0.035150826 0.71600002 -0.043938532 9.2257147e-39 292 275
-0.03389544 0.71600002 -0.043938532 9.4101073e-39 293 275
-0.032640055 0.71600002 -0.043938532 1.1717903e-38 294 275
-0.031296998 0.71399999 -0.043815799 1.3285589e-38 295 275
-0.029918881 0.71100003 -0.043631699 1.5307775e-38 296 275
-0.028631933 0.70999998 -0.043570329 1.5492167e-38 297 275
-0.027309919 0.708 -0.043447599 1.5217375e-38 298 275
-0.02603174 0.70700002 -0.043386232 1.4756756e-38 299 275
-0.024757065 0.70599997 -0.043324865 1.4114255e-38 300 275
-0.023519212 0.70599997 -0.043324865 1.4022058e-38 301 275
-0.022281358 0.70599997 -0.043324865 1.4298649e-38 302 275
-0.021043506 0.70599997 -0.043324865 1.4759269e-38 303 275
-0.019805651 0.70599997 -0.043324865 1.420502e-38 304 275
-0.018515198 0.704 -0.043202132 1.3283065e-38 305 275
-0.017280852 0.704 -0.043202132 1.3378503e-38 306 275
-0.016046507 0.704 -0.043202132 1.4208264e-38 307 275
-0.014791119 0.70300001 -0.043140765 1.5590847e-38 308 275
-0.013558527 0.70300001 -0.043140765 1.5406454e-38 309 275
-0.012325933 0.70300001 -0.043140765 1.5314256e-38 310 275
-0.011061779 0.70099998 -0.043018032 1.522206e-38 311 275
-0.0098326923 0.70099998 -0.043018032 1.5130943e-38 312 275
-0.0086036054 0.70099998 -0.043018032 1.4854356e-38 313 275
-0.0073745195 0.70099998 -0.043018032 1.3102286e-38 314 275
-0.0061454331 0.70099998 -0.043018032 9.6910481e-39 315 275
-0.0049163462 0.70099998 -0.043018032 6.3802871e-39 316 275
-0.0036819996 0.69999999 -0.042956665 6.8412652e-39 317 275
-0.0024546667 0.69999999 -0.042956665 9.7821479e-39 318 275
-0.0012290865 0.70099998 -0.043018032 1.1072887e-38 319 275
0 0.70099998 -0.043018032 1.1622802e-38 320 275
0.0012290865 0.70099998 -0.043018032 1.1807192e-38 321 275
0.0024581731 0.70099998 -0.043018032 1.1897613e-38 322 275
0.0036977797 0.70300001 -0.043140765 1.2542982e-38 323 275
0.0049303733 0.70300001 -0.043140765 1.2360052e-38 324 275
0.0061629666 0.70300001 -0.043140765 1.0608335e-38 325 275
0.0073955595 0.70300001 -0.043140765 9.0507163e-39 326 275
0.0086404262 0.704 -0.043202132 9.972674e-39 327 275
0.0098747732 0.704 -0.043202132 1.1717537e-38 328 275
0.011109119 0.704 -0.043202132 1.1717537e-38 329 275
0.012378532 0.70599997 -0.043324865 1.2268543e-38 330 275
0.013635674 0.70700002 -0.043386232 1.2452936e-38 331 275
0.01489632 0.708 -0.043447599 1.2544051e-38 332 275
0.016183265 0.70999998 -0.043570329 1.2451855e-38 333 275
0.01745268 0.71100003 -0.043631699 1.2176348e-38 334 275
0.018778199 0.71399999 -0.043815799 1.1991598e-38 335 275
0.020030079 0.71399999 -0.043815799 1.2175629e-38 336 275
0.021341572 0.71600002 -0.043938532 1.2636248e-38 337 275
0.02262852 0.71700001 -0.043999899 1.3097563e-38 338 275
0.02388566 0.71700001 -0.043999899 1.6600997e-38 339 275
0.0251428 0.71700001 -0.043999899 2.0005378e-38 340 275
0.02639994 0.71700001 -0.043999899 2.2586856e-38 341 275
-0.035199918 0.71700001 -0.045257039 1.0144072e-38 292 276
-0.03389544 0.71600002 -0.045193922 9.1302793e-39 293 276
-0.032640055 0.71600002 -0.045193922 8.9545592e-39 294 276
-0.031296998 0.71399999 -0.045067675 1.0706276e-38 295 276
-0.030045118 0.71399999 -0.045067675 1.4386544e-38 296 276
-0.028672259 0.71100003 -0.044878319 1.447874e-38 297 276
-0.027309919 0.708 -0.044688959 1.3744043e-38 298 276
-0.026068559 0.708 -0.044688959 1.3928434e-38 299 276
-0.024792133 0.70700002 -0.044625837 1.448124e-38 300 276
-0.023519212 0.70599997 -0.044562716 1.531064e-38 301 276
-0.022281358 0.70599997 -0.044562716 1.5036577e-38 302 276
-0.021043506 0.70599997 -0.044562716 1.5589751e-38 303 276
-0.019805651 0.70599997 -0.044562716 1.5404288e-38 304 276
-0.018567799 0.70599997 -0.044562716 1.4851114e-38 305 276
-0.017280852 0.704 -0.044436477 1.3930958e-38 306 276
-0.016046507 0.704 -0.044436477 1.4576328e-38 307 276
-0.014812159 0.704 -0.044436477 1.5774518e-38 308 276
-0.013577812 0.704 -0.044436477 1.5681962e-38 309 276
-0.012325933 0.70300001 -0.04437336 1.5130946e-38 310 276
-0.01109334 0.70300001 -0.04437336 1.5130946e-38 311 276
-0.0098607466 0.70300001 -0.04437336 1.5223139e-38 312 276
-0.0086036054 0.70099998 -0.044247117 1.4946552e-38 313 276
-0.0073745195 0.70099998 -0.044247117 1.3563265e-38 314 276
-0.0061454331 0.70099998 -0.044247117 1.2272526e-38 315 276
-0.0049163462 0.70099998 -0.044247117 1.2641667e-38 316 276
-0.0036872597 0.70099998 -0.044247117 1.2641667e-38 317 276
-0.0024581731 0.70099998 -0.044247117 1.3007923e-38 318 276
-0.0012290865 0.70099998 -0.044247117 1.3007923e-38 319 276
0 0.70300001 -0.04437336 1.3283784e-38 320 276
0.0012325933 0.70300001 -0.04437336 1.3007557e-38 321 276
0.0024651866 0.70300001 -0.04437336 1.3095434e-38 322 276
0.0036977797 0.70300001 -0.04437336 1.2911043e-38 323 276
0.0049303733 0.70300001 -0.04437336 1.3739374e-38 324 276
0.0061717331 0.704 -0.044436477 1.2080212e-38 325 276
0.0074060797 0.704 -0.044436477 9.2343887e-39 326 276
0.0086404262 0.704 -0.044436477 9.5106169e-39 327 276
0.0098747732 0.704 -0.044436477 1.0888868e-38 328 276
0.011140679 0.70599997 -0.044562716 1.1257651e-38 329 276
0.012378532 0.70599997 -0.044562716 1.2268193e-38 330 276
0.013635674 0.70700002 -0.044625837 1.2452586e-38 331 276
0.01489632 0.708 -0.044688959 1.2544054e-38 332 276
0.016183265 0.70999998 -0.044815198 1.2175273e-38 333 276
0.017501773 0.713 -0.045004558 1.2266745e-38 334 276
0.018778199 0.71399999 -0.045067675 1.1897963e-38 335 276
0.020086186 0.71600002 -0.045193922 1.1623171e-38 336 276
0.021341572 0.71600002 -0.045193922 1.2176345e-38 337 276
0.02262852 0.71700001 -0.045257039 1.3005367e-38 338 276
0.02388566 0.71700001 -0.045257039 1.6785029e-38 339 276
0.0251428 0.71700001 -0.045257039 2.0005743e-38 340 276
0.02639994 0.71700001 -0.045257039 2.2218796e-38 341 276
-0.037819397 0.71899998 -0.046643924 2.2679772e-38 290 277
-0.036558751 0.71899998 -0.046643924 2.0098294e-38 291 277
-0.035199918 0.71700001 -0.046514176 1.1066022e-38 292 277
-0.033942781 0.71700001 -0.046514176 1.005151e-38 293 277
-0.032776814 0.71899998 -0.046643924 1.1162215e-38 294 277
-0.031384666 0.71600002 -0.046449307 9.8714765e-39 295 277
-0.03012928 0.71600002 -0.046449307 8.5890193e-39 296 277
-0.028672259 0.71100003 -0.046124939 1.0248541e-38 297 277
-0.027387066 0.70999998 -0.046060063 1.2455102e-38 298 277
-0.026068559 0.708 -0.045930319 1.3192667e-38 299 277
-0.024792133 0.70700002 -0.045865446 1.5398523e-38 300 277
-0.023552528 0.70700002 -0.045865446 1.7058404e-38 301 277
-0.022312919 0.70700002 -0.045865446 1.6142927e-38 302 277
-0.021073313 0.70700002 -0.045865446 1.6511711e-38 303 277
-0.019805651 0.70599997 -0.04580057 1.6235489e-38 304 277
-0.018567799 0.70599997 -0.04580057 1.5682315e-38 305 277
-0.017329946 0.70599997 -0.04580057 1.5131299e-38 306 277
-0.016046507 0.704 -0.045670826 1.5038745e-38 307 277
-0.014812159 0.704 -0.045670826 1.5499006e-38 308 277
-0.013577812 0.704 -0.045670826 1.5499006e-38 309 277
-0.012343466 0.704 -0.045670826 1.5223139e-38 310 277
-0.01109334 0.70300001 -0.04560595 1.5223139e-38 311 277
-0.0098607466 0.70300001 -0.04560595 1.5223139e-38 312 277
-0.0086281532 0.70300001 -0.04560595 1.4946552e-38 313 277
-0.0073955595 0.70300001 -0.04560595 1.2920415e-38 314 277
-0.0061629666 0.70300001 -0.04560595 1.1445286e-38 315 277
-0.0049303733 0.70300001 -0.04560595 1.2181056e-38 316 277
-0.0036977797 0.70300001 -0.04560595 1.2181056e-38 317 277
-0.0024651866 0.70300001 -0.04560595 1.2455122e-38 318 277
-0.0012325933 0.70300001 -0.04560595 1.2178535e-38 319 277
0 0.70300001 -0.04560595 1.2547318e-38 320 277
0.0012325933 0.70300001 -0.04560595 1.2086339e-38 321 277
0.0024686933 0.704 -0.045670826 1.1534591e-38 322 277
0.0037030398 0.704 -0.045670826 1.1995569e-38 323 277
0.0049373866 0.704 -0.045670826 1.3466736e-38 324 277
0.0061717331 0.704 -0.045670826 1.2175997e-38 325 277
0.0074060797 0.704 -0.045670826 1.0521165e-38 326 277
0.0086404262 0.704 -0.045670826 9.6910453e-39 327 277
0.0099028256 0.70599997 -0.04580057 1.0428616e-38 328 277
0.011140679 0.70599997 -0.04580057 1.098179e-38 329 277
0.012396066 0.70700002 -0.045865446 1.1717184e-38 330 277
0.013654959 0.708 -0.045930319 1.2178162e-38 331 277
0.014938398 0.70999998 -0.046060063 1.2636248e-38 332 277
0.01620606 0.71100003 -0.046124939 1.2267824e-38 333 277
0.017501773 0.713 -0.046254687 1.1806483e-38 334 277
0.018778199 0.71399999 -0.046319555 1.208343e-38 335 277
0.020086186 0.71600002 -0.046449307 1.2544404e-38 336 277
0.021371379 0.71700001 -0.046514176 1.2821351e-38 337 277
0.02262852 0.71700001 -0.046514176 1.3005367e-38 338 277
0.02388566 0.71700001 -0.046514176 1.6508801e-38 339 277
0.025248 0.72000003 -0.0467088 1.9546565e-38 340 277
0.026510401 0.72000003 -0.0467088 2.1667425e-38 341 277
-0.037819397 0.71899998 -0.04790457 2.2956359e-38 290 278
-0.036558751 0.71899998 -0.04790457 2.1389033e-38 291 278
-0.035445385 0.722 -0.048104454 1.4105957e-38 292 278
-0.034179479 0.722 -0.048104454 1.0786555e-38 293 278
-0.0328224 0.72000003 -0.0479712 1.1806136e-38 294 278
-0.031384666 0.71600002 -0.047704693 9.9622245e-39 295 278
-0.03012928 0.71600002 -0.047704693 6.931293e-39 296 278
-0.028793238 0.71399999 -0.047571439 7.4844668e-39 297 278
-0.027387066 0.70999998 -0.047304932 9.9672622e-39 298 278
-0.026142199 0.70999998 -0.047304932 1.1534588e-38 299 278
-0.024827199 0.708 -0.047171678 1.4570204e-38 300 278
-0.023552528 0.70700002 -0.047105055 1.6691062e-38 301 278
-0.022312919 0.70700002 -0.047105055 1.6787222e-38 302 278
-0.021073313 0.70700002 -0.047105055 1.6879418e-38 303 278
-0.019833706 0.70700002 -0.047105055 1.6236925e-38 304 278
-0.018567799 0.70599997 -0.047038425 1.6052174e-38 305 278
-0.017329946 0.70599997 -0.047038425 1.5959981e-38 306 278
-0.016046507 0.704 -0.046905171 1.5683395e-38 307 278
-0.014812159 0.704 -0.046905171 1.5499726e-38 308 278
-0.013577812 0.704 -0.046905171 1.540717e-38 309 278
-0.012343466 0.704 -0.046905171 1.5132018e-38 310 278
-0.011109119 0.704 -0.046905171 1.5132018e-38 311 278
-0.0098607466 0.70300001 -0.046838548 1.5406804e-38 312 278
-0.0086281532 0.70300001 -0.046838548 1.4946186e-38 313 278
-0.0073955595 0.70300001 -0.046838548 1.3103358e-38 314 278
-0.0061629666 0.70300001 -0.046838548 1.1444197e-38 315 278
-0.0049303733 0.70300001 -0.046838548 1.1628601e-38 316 278
-0.0036977797 0.70300001 -0.046838548 1.1720797e-38 317 278
-0.0024651866 0.70300001 -0.046838548 1.1995942e-38 318 278
-0.0012325933 0.70300001 -0.046838548 1.2179974e-38 319 278
0 0.70300001 -0.046838548 1.1906264e-38 320 278
0.0012343467 0.704 -0.046905171 1.1721873e-38 321 278
0.0024686933 0.704 -0.046905171 1.1996295e-38 322 278
0.0037030398 0.704 -0.046905171 1.2549469e-38 323 278
0.0049373866 0.704 -0.046905171 1.3100822e-38 324 278
0.0061892662 0.70599997 -0.047038425 1.208667e-38 325 278
0.0074271196 0.70599997 -0.047038425 1.0704462e-38 326 278
0.0086649731 0.70599997 -0.047038425 1.0520069e-38 327 278
0.0099028256 0.70599997 -0.047038425 1.0981065e-38 328 278
0.011140679 0.70599997 -0.047038425 1.1349846e-38 329 278
0.0124136 0.708 -0.047171678 1.1717903e-38 330 278
0.013654959 0.708 -0.047171678 1.2087046e-38 331 278
0.014938398 0.70999998 -0.047304932 1.2729168e-38 332 278
0.01620606 0.71100003 -0.047371563 1.2729168e-38 333 278
0.017501773 0.713 -0.047504812 1.2268543e-38 334 278
0.0188308 0.71600002 -0.047704693 1.2452936e-38 335 278
0.020086186 0.71600002 -0.047704693 1.3097578e-38 336 278
0.021371379 0.71700001 -0.04777132 1.2821351e-38 337 278
0.02262852 0.71700001 -0.04777132 1.2912813e-38 338 278
0.02388566 0.71700001 -0.04777132 1.632441e-38 339 278
0.025107734 0.71600002 -0.047704693 1.945437e-38 340 278
0.026363119 0.71600002 -0.047704693 2.1482673e-38 341 278
0.027618507 0.71600002 -0.047704693 2.1573427e-38 342 278
-0.036609601 0.72000003 -0.0492336 2.1389033e-38 291 279
-0.035347197 0.72000003 -0.0492336 1.8159315e-38 292 279
-0.03403746 0.71899998 -0.049165215 1.4840272e-38 293 279
-0.032776814 0.71899998 -0.049165215 1.0239518e-38 294 279
-0.031428497 0.71700001 -0.04902846 9.5019527e-39 295 279
-0.03012928 0.71600002 -0.048960082 1.0149502e-38 296 279
-0.028793238 0.71399999 -0.048823316 9.5041331e-39 297 279
-0.027425639 0.71100003 -0.048618179 9.135373e-39 298 279
-0.026142199 0.70999998 -0.048549797 2.8664289e-39 299 279
-0.024827199 0.708 -0.048413038 1.1230132e-39 300 279
-0.023552528 0.70700002 -0.048344657 4.903034e-39 301 279
-0.022312919 0.70700002 -0.048344657 8.9560292e-39 302 279
-0.021103119 0.708 -0.048413038 1.126056e-38 303 279
-0.019833706 0.70700002 -0.048344657 1.393529e-38 304 279
-0.018567799 0.70599997 -0.048276275 1.5226028e-38 305 279
-0.017329946 0.70599997 -0.048276275 1.6051105e-38 306 279
-0.016092092 0.70599997 -0.048276275 1.5774518e-38 307 279
-0.014854239 0.70599997 -0.048276275 1.5499726e-38 308 279
-0.013577812 0.704 -0.048139516 1.5499726e-38 309 279
-0.012343466 0.704 -0.048139516 1.5223858e-38 310 279
-0.011109119 0.704 -0.048139516 1.5131662e-38 311 279
-0.0098747732 0.704 -0.048139516 1.540717e-38 312 279
-0.0086404262 0.704 -0.048139516 1.5038748e-38 313 279
-0.0074060797 0.704 -0.048139516 1.3562541e-38 314 279
-0.0061717331 0.704 -0.048139516 1.2364358e-38 315 279
-0.0049303733 0.70300001 -0.048071139 1.1997384e-38 316 279
-0.0036977797 0.70300001 -0.048071139 1.1997384e-38 317 279
-0.0024686933 0.704 -0.048139516 1.1906267e-38 318 279
-0.0012343467 0.704 -0.048139516 1.1906267e-38 319 279
0 0.704 -0.048139516 1.1539279e-38 320 279
0.0012343467 0.704 -0.048139516 1.1539279e-38 321 279
0.0024757064 0.70599997 -0.048276275 1.2639866e-38 322 279
0.0037135598 0.70599997 -0.048276275 1.1994497e-38 323 279
0.0049514128 0.70599997 -0.048276275 9.9730244e-39 324 279
0.0061892662 0.70599997 -0.048276275 1.0618394e-38 325 279
0.0074271196 0.70599997 -0.048276275 1.2913206e-38 326 279
0.0086649731 0.70599997 -0.048276275 1.2452588e-38 327 279
0.0099028256 0.70599997 -0.048276275 1.1718256e-38 328 279
0.011140679 0.70599997 -0.048276275 1.1718256e-38 329 279
0.0124136 0.708 -0.048413038 1.2085244e-38 330 279
0.013693533 0.70999998 -0.048549797 1.2177441e-38 331 279
0.014959441 0.71100003 -0.048618179 1.2452583e-38 332 279
0.01620606 0.71100003 -0.048618179 1.2636973e-38 333 279
0.017526319 0.71399999 -0.048823316 1.2268906e-38 334 279
0.0188308 0.71600002 -0.048960082 1.2453658e-38 335 279
0.020114239 0.71700001 -0.04902846 1.2821714e-38 336 279
0.021371379 0.71700001 -0.04902846 1.2637323e-38 337 279
0.02262852 0.71700001 -0.04902846 1.3002493e-38 338 279
0.02388566 0.71700001 -0.04902846 1.6506287e-38 339 279
0.025107734 0.71600002 -0.048960082 1.9362177e-38 340 279
0.026363119 0.71600002 -0.048960082 2.1205731e-38 341 279
0.027618507 0.71600002 -0.048960082 2.1205365e-38 342 279
-0.036609601 0.72000003 -0.050496001 2.1020972e-38 291 280
-0.035347197 0.72000003 -0.050496001 1.8531694e-38 292 280
-0.03403746 0.71899998 -0.050425861 1.6872173e-38 293 280
-0.032776814 0.71899998 -0.050425861 1.3554221e-38 294 280
-0.031428497 0.71700001 -0.0502856 1.1157136e-38 295 280
-0.030171359 0.71700001 -0.0502856 1.0700862e-38 296 280
-0.028873893 0.71600002 -0.050215468 1.051683e-38 297 280
-0.02754136 0.71399999 -0.050075196 1.014773e-38 298 280
-0.026179021 0.71100003 -0.049864799 2.2189057e-39 299 280
-0.024897331 0.70999998 -0.049794663 1.2891946e-43 300 280
-0.023585839 0.708 -0.049654398 2.3009321e-42 301 280
-0.022344479 0.708 -0.049654398 1.1661606e-41 302 280
-0.021103119 0.708 -0.049654398 2.2293986e-39 303 280
-0.019833706 0.70700002 -0.049584266 6.4786316e-39 304 280
-0.018567799 0.70599997 -0.04951413 1.1180969e-38 305 280
-0.017329946 0.70599997 -0.04951413 1.5868158e-38 306 280
-0.016092092 0.70599997 -0.04951413 1.5775962e-38 307 280
-0.014854239 0.70599997 -0.04951413 1.5316411e-38 308 280
-0.013616386 0.70599997 -0.04951413 1.5316411e-38 309 280
-0.012343466 0.704 -0.049373865 1.5132018e-38 310 280
-0.011109119 0.704 -0.049373865 1.5132018e-38 311 280
-0.0098747732 0.704 -0.049373865 1.5499723e-38 312 280
-0.0086404262 0.704 -0.049373865 1.5131299e-38 313 280
-0.0074060797 0.704 -0.049373865 1.3653308e-38 314 280
-0.0061717331 0.704 -0.049373865 1.2178538e-38 315 280
-0.0049373866 0.704 -0.049373865 1.1169793e-38 316 280
-0.0037030398 0.704 -0.049373865 1.1077598e-38 317 280
-0.0024686933 0.704 -0.049373865 1.1539652e-38 318 280
-0.0012343467 0.704 -0.049373865 1.1816238e-38 319 280
0 0.70599997 -0.04951413 1.1997384e-38 320 280
0.0012378532 0.70599997 -0.04951413 1.1813352e-38 321 280
0.0024757064 0.70599997 -0.04951413 1.2823176e-38 322 280
0.0037135598 0.70599997 -0.04951413 1.1717187e-38 323 280
0.0049514128 0.70599997 -0.04951413 1.0610113e-38 324 280
0.0061892662 0.70599997 -0.04951413 1.2362191e-38 325 280
0.0074271196 0.70599997 -0.04951413 1.3558932e-38 326 280
0.0086649731 0.70599997 -0.04951413 1.2913562e-38 327 280
0.0099168532 0.70700002 -0.049584266 1.2820648e-38 328 280
0.011156459 0.70700002 -0.049584266 1.2543701e-38 329 280
0.012448666 0.70999998 -0.049794663 1.1993051e-38 330 280
0.013693533 0.70999998 -0.049794663 1.1993051e-38 331 280
0.014959441 0.71100003 -0.049864799 1.2084525e-38 332 280
0.01620606 0.71100003 -0.049864799 1.1900133e-38 333 280
0.017575413 0.71600002 -0.050215468 1.2268193e-38 334 280
0.0188308 0.71600002 -0.050215468 1.2452586e-38 335 280
0.020114239 0.71700001 -0.0502856 1.2638405e-38 336 280
0.021430992 0.71899998 -0.050425861 1.2085231e-38 337 280
0.022691639 0.71899998 -0.050425861 1.2357845e-38 338 280
0.023952285 0.71899998 -0.050425861 1.6230062e-38 339 280
0.025212931 0.71899998 -0.050425861 1.9361455e-38 340 280
0.02647358 0.71899998 -0.050425861 2.1113172e-38 341 280
0.027734226 0.71899998 -0.050425861 2.1205365e-38 342 280
-0.035347197 0.72000003 -0.051758397 1.8166154e-38 292 281
-0.03403746 0.71899998 -0.05168651 1.6967611e-38 293 281
-0.032776814 0.71899998 -0.05168651 1.6964739e-38 294 281
-0.031516165 0.71899998 -0.05168651 1.502863e-38 295 281
-0.030171359 0.71700001 -0.051542737 1.1989786e-38 296 281
-0.028873893 0.71600002 -0.051470853 1.0791243e-38 297 281
-0.02754136 0.71399999 -0.05132708 1.0421761e-38 298 281
-0.026179021 0.71100003 -0.051111419 4.5212404e-39 299 281
-0.024897331 0.70999998 -0.051039528 2.8531698e-40 300 281
-0.023585839 0.708 -0.050895758 1.115079e-39 301 281
-0.022344479 0.708 -0.050895758 2.8321083e-40 302 281
-0.021162732 0.70999998 -0.051039528 6.6239378e-42 303 281
-0.01986176 0.708 -0.050895758 2.4221444e-41 304 281
-0.018594101 0.70700002 -0.050823875 5.2851331e-39 305 281
-0.017354494 0.70700002 -0.050823875 1.5040918e-38 306 281
-0.016092092 0.70599997 -0.050751984 1.5593732e-38 307 281
-0.014854239 0.70599997 -0.050751984 1.5591203e-38 308 281
-0.013616386 0.70599997 -0.050751984 1.5499006e-38 309 281
-0.012378532 0.70599997 -0.050751984 1.5040546e-38 310 281
-0.011109119 0.704 -0.050608214 1.5040546e-38 311 281
-0.0098747732 0.704 -0.050608214 1.5316055e-38 312 281
-0.0086404262 0.704 -0.050608214 1.5039467e-38 313 281
-0.0074060797 0.704 -0.050608214 1.3287401e-38 314 281
-0.0061717331 0.704 -0.050608214 1.052153e-38 315 281
-0.0049373866 0.704 -0.050608214 9.0536128e-39 316 281
-0.0037030398 0.704 -0.050608214 9.6067866e-39 317 281
-0.0024757064 0.70599997 -0.050751984 1.0987203e-38 318 281
-0.0012378532 0.70599997 -0.050751984 1.1263431e-38 319 281
0 0.70599997 -0.050751984 1.1996309e-38 320 281
0.0012378532 0.70599997 -0.050751984 1.2181059e-38 321 281
0.0024757064 0.70599997 -0.050751984 1.2824258e-38 322 281
0.0037135598 0.70599997 -0.050751984 1.2362919e-38 323 281
0.0049514128 0.70599997 -0.050751984 1.1718986e-38 324 281
0.0061980332 0.70700002 -0.050823875 1.2179963e-38 325 281
0.0074376399 0.70700002 -0.050823875 1.2455471e-38 326 281
0.008677247 0.70700002 -0.050823875 1.2547668e-38 327 281
0.0099168532 0.70700002 -0.050823875 1.2546222e-38 328 281
0.01117224 0.708 -0.050895758 1.2085244e-38 329 281
0.012448666 0.70999998 -0.051039528 1.1992329e-38 330 281
0.01371282 0.71100003 -0.051111419 1.1992329e-38 331 281
0.014959441 0.71100003 -0.051111419 1.2450789e-38 332 281
0.016274439 0.71399999 -0.05132708 1.2542985e-38 333 281
0.017575413 0.71600002 -0.051470853 1.2268909e-38 334 281
0.018857099 0.71700001 -0.051542737 1.2453302e-38 335 281
0.020114239 0.71700001 -0.051542737 1.2820995e-38 336 281
0.021430992 0.71899998 -0.05168651 1.1991235e-38 337 281
0.022691639 0.71899998 -0.05168651 1.1621005e-38 338 281
0.023952285 0.71899998 -0.05168651 1.5954198e-38 339 281
0.025248 0.72000003 -0.051758397 1.9269981e-38 340 281
0.026510401 0.72000003 -0.051758397 2.0745111e-38 341 281
-0.034084801 0.72000003 -0.053020801 1.751971e-38 293 282
-0.0328224 0.72000003 -0.053020801 1.7152007e-38 294 282
-0.031516165 0.71899998 -0.05294716 1.6045299e-38 295 282
-0.030171359 0.71700001 -0.052799881 1.4569096e-38 296 282
-0.028873893 0.71600002 -0.052726239 1.3647499e-38 297 282
-0.02754136 0.71399999 -0.052578956 1.198942e-38 298 282
-0.026252659 0.713 -0.052505318 8.5778229e-39 299 282
-0.024897331 0.70999998 -0.052284397 5.254858e-39 300 282
-0.023652466 0.70999998 -0.052284397 3.779728e-39 301 282
-0.022407599 0.70999998 -0.052284397 1.2037028e-39 302 282
-0.021162732 0.70999998 -0.052284397 3.00018e-42 303 282
-0.01986176 0.708 -0.052137118 9.094427e-42 304 282
-0.018594101 0.70700002 -0.05206348 5.3622045e-39 305 282
-0.017354494 0.70700002 -0.05206348 1.531354e-38 306 282
-0.016114887 0.70700002 -0.05206348 1.6235136e-38 307 282
-0.014854239 0.70599997 -0.051989835 1.540717e-38 308 282
-0.013616386 0.70599997 -0.051989835 1.540717e-38 309 282
-0.012378532 0.70599997 -0.051989835 1.5223858e-38 310 282
-0.011140679 0.70599997 -0.051989835 1.5131662e-38 311 282
-0.0099028256 0.70599997 -0.051989835 1.540717e-38 312 282
-0.0086404262 0.704 -0.051842559 1.5130943e-38 313 282
-0.0074060797 0.704 -0.051842559 1.402352e-38 314 282
-0.0061717331 0.704 -0.051842559 1.2179607e-38 315 282
-0.0049514128 0.70599997 -0.051989835 1.1167627e-38 316 282
-0.0037135598 0.70599997 -0.051989835 1.1351658e-38 317 282
-0.0024757064 0.70599997 -0.051989835 1.1444941e-38 318 282
-0.0012378532 0.70599997 -0.051989835 1.1628972e-38 319 282
0 0.70599997 -0.051989835 1.172152e-38 320 282
0.0012378532 0.70599997 -0.051989835 1.172152e-38 321 282
0.0024757064 0.70599997 -0.051989835 1.2089213e-38 322 282
0.0037135598 0.70599997 -0.051989835 1.1997018e-38 323 282
0.0049514128 0.70599997 -0.051989835 1.1996295e-38 324 282
0.0061980332 0.70700002 -0.05206348 1.2272523e-38 325 282
0.0074376399 0.70700002 -0.05206348 1.1996648e-38 326 282
0.008677247 0.70700002 -0.05206348 1.1996648e-38 327 282
0.0099308798 0.708 -0.052137118 1.2820292e-38 328 282
0.011203799 0.70999998 -0.052284397 1.2635901e-38 329 282
0.012448666 0.70999998 -0.052284397 1.2084528e-38 330 282
0.01371282 0.71100003 -0.052358042 1.1992332e-38 331 282
0.015001519 0.713 -0.052505318 1.2084525e-38 332 282
0.016320027 0.71600002 -0.052726239 1.2268556e-38 333 282
0.017575413 0.71600002 -0.052726239 1.2083799e-38 334 282
0.018857099 0.71700001 -0.052799881 1.226819e-38 335 282
0.020170346 0.71899998 -0.05294716 1.2085228e-38 336 282
0.021430992 0.71899998 -0.05294716 1.1439859e-38 337 282
0.022723202 0.72000003 -0.053020801 1.2540441e-38 338 282
0.0239856 0.72000003 -0.053020801 1.6136072e-38 339 282
0.025248 0.72000003 -0.053020801 1.9086313e-38 340 282
-0.032776814 0.71899998 -0.054207806 1.7152372e-38 294 283
-0.031516165 0.71899998 -0.054207806 1.6691394e-38 295 283
-0.030171359 0.71700001 -0.054057021 1.6965107e-38 296 283
-0.028873893 0.71600002 -0.053981625 1.6872911e-38 297 283
-0.02754136 0.71399999 -0.053830836 1.4848926e-38 298 283
-0.026252659 0.713 -0.053755447 1.2820623e-38 299 283
-0.024932399 0.71100003 -0.053604662 1.1524494e-38 300 283
-0.023652466 0.70999998 -0.053529263 7.7444749e-39 301 283
-0.022407599 0.70999998 -0.053529263 3.508927e-39 302 283
-0.021162732 0.70999998 -0.053529263 6.5050377e-40 303 283
-0.019917866 0.70999998 -0.053529263 1.1975497e-41 304 283
-0.018672999 0.70999998 -0.053529263 5.0892161e-39 305 283
-0.017379038 0.708 -0.053378478 1.5313186e-38 306 283
-0.016114887 0.70700002 -0.053303085 1.6327337e-38 307 283
-0.01487528 0.70700002 -0.053303085 1.5407173e-38 308 283
-0.013616386 0.70599997 -0.053227689 1.5407173e-38 309 283
-0.012378532 0.70599997 -0.053227689 1.5223858e-38 310 283
-0.011140679 0.70599997 -0.053227689 1.5131662e-38 311 283
-0.0099028256 0.70599997 -0.053227689 1.5223142e-38 312 283
-0.0086649731 0.70599997 -0.053227689 1.4946196e-38 313 283
-0.0074271196 0.70599997 -0.053227689 1.3840205e-38 314 283
-0.0061892662 0.70599997 -0.053227689 1.2826051e-38 315 283
-0.0049514128 0.70599997 -0.053227689 1.2364358e-38 316 283
-0.0037135598 0.70599997 -0.053227689 1.2364358e-38 317 283
-0.0024792133 0.70700002 -0.053303085 1.1995944e-38 318 283
-0.0012396066 0.70700002 -0.053303085 1.2179977e-38 319 283
0 0.70700002 -0.053303085 1.1721523e-38 320 283
0.0012396066 0.70700002 -0.053303085 1.1444936e-38 321 283
0.0024792133 0.70700002 -0.053303085 1.1811916e-38 322 283
0.0037188199 0.70700002 -0.053303085 1.1996309e-38 323 283
0.0049584266 0.70700002 -0.053303085 1.1903746e-38 324 283
0.0061980332 0.70700002 -0.053303085 1.1995942e-38 325 283
0.0074481601 0.708 -0.053378478 1.1995216e-38 326 283
0.008689519 0.708 -0.053378478 1.1995216e-38 327 283
0.0099589331 0.70999998 -0.053529263 1.2360758e-38 328 283
0.011203799 0.70999998 -0.053529263 1.2268563e-38 329 283
0.0124662 0.71100003 -0.053604662 1.1900496e-38 330 283
0.01371282 0.71100003 -0.053604662 1.1900496e-38 331 283
0.015001519 0.713 -0.053755447 1.171754e-38 332 283
0.016320027 0.71600002 -0.053981625 1.1624986e-38 333 283
