# .PCD v.7 - Point Cloud Data file format
FIELDS x y z rgb imX imY
SIZE 4 4 4 4 4 4
TYPE F F F F F F
COUNT 1 1 1 1 1 1
WIDTH 833
HEIGHT 1
VIEWPOINT 0 0 0 1 0 0 0
POINTS 833
DATA ascii
0.01460176 0.69400001 -0.01460176 4.6209919e-39 332 252
0.015818574 0.69400001 -0.01460176 8.0322302e-39 333 252
0.017133573 0.69800001 -0.01468592 1.2452209e-38 334 252
0.018409999 0.69999999 -0.014727999 1.3558916e-38 335 252
0.019721493 0.70300001 -0.014791119 1.4108122e-38 336 252
0.020954086 0.70300001 -0.014791119 1.3554948e-38 337 252
-0.031956252 0.70099998 -0.015978126 1.3194077e-38 294 253
-0.030595668 0.69800001 -0.015909746 1.4761044e-38 295 253
-0.029371841 0.69800001 -0.015909746 1.6690666e-38 296 253
-0.028148014 0.69800001 -0.015909746 1.5123699e-38 297 253
-0.026885614 0.69700003 -0.015886955 1.2913872e-38 298 253
-0.025663542 0.69700003 -0.015886955 9.5948279e-39 299 253
-0.024336265 0.69400001 -0.015818574 3.7127403e-41 300 253
-0.02308614 0.69300002 -0.015795778 1.5880915e-41 301 253
-0.021776399 0.69 -0.015727401 1.2093206e-42 302 253
-0.020566599 0.69 -0.015727401 1.2891946e-43 303 253
-0.019356798 0.69 -0.015727401 1.1588738e-42 304 253
-0.018146999 0.69 -0.015727401 4.7960505e-39 305 253
-0.0169372 0.69 -0.015727401 9.8786469e-39 306 253
-0.015727401 0.69 -0.015727401 1.679296e-38 307 253
-0.014517599 0.69 -0.015727401 2.3050708e-38 308 253
-0.0133078 0.69 -0.015727401 2.3509886e-38 309 253
-0.012062933 0.68800002 -0.015681813 2.3509886e-38 310 253
-0.010856641 0.68800002 -0.015681813 2.3509886e-38 311 253
-0.0096783992 0.69 -0.015727401 2.3509886e-38 312 253
-0.0084317802 0.68699998 -0.015659019 2.3509886e-38 313 253
-0.0072272392 0.68699998 -0.015659019 2.3509886e-38 314 253
-0.0060226996 0.68699998 -0.015659019 2.2401372e-38 315 253
-0.0048181596 0.68699998 -0.015659019 2.1200301e-38 316 253
-0.0036136196 0.68699998 -0.015659019 1.9356747e-38 317 253
-0.0024125867 0.68800002 -0.015681813 1.7515352e-38 318 253
-0.0012062934 0.68800002 -0.015681813 1.6132418e-38 319 253
0 0.68800002 -0.015681813 1.3735334e-38 320 253
0.0012062934 0.68800002 -0.015681813 1.170703e-38 321 253
0.0024125867 0.68800002 -0.015681813 1.0415573e-38 322 253
0.0036188802 0.68800002 -0.015681813 9.5854532e-39 323 253
0.0048391996 0.69 -0.015727401 6.6416755e-39 324 253
0.0060489997 0.69 -0.015727401 4.7977629e-39 325 253
0.0072587994 0.69 -0.015727401 4.7959902e-39 326 253
0.0084686 0.69 -0.015727401 4.2428165e-39 327 253
0.0096924258 0.69099998 -0.015750192 4.3515726e-39 328 253
0.010935539 0.69300002 -0.015795778 7.0252459e-39 329 253
0.012168133 0.69400001 -0.015818574 1.0243105e-38 330 253
0.013384946 0.69400001 -0.015818574 1.1626398e-38 331 253
0.014643839 0.69599998 -0.015864158 1.3007535e-38 332 253
0.015886955 0.69700003 -0.015886955 1.3284122e-38 333 253
0.017133573 0.69800001 -0.015909746 1.3558182e-38 334 253
0.018409999 0.69999999 -0.015955333 1.3465985e-38 335 253
0.019721493 0.70300001 -0.016023712 1.3648218e-38 336 253
0.020954086 0.70300001 -0.016023712 1.2449675e-38 337 253
0.02218668 0.70300001 -0.016023712 1.189937e-38 338 253
-0.033280019 0.70300001 -0.017256306 1.3646765e-38 293 254
-0.031956252 0.70099998 -0.017207211 1.089243e-38 294 254
-0.030595668 0.69800001 -0.017133573 1.1353048e-38 295 254
-0.029371841 0.69800001 -0.017133573 1.4575956e-38 296 254
-0.028107686 0.69700003 -0.017109027 1.5497911e-38 297 254
-0.026885614 0.69700003 -0.017109027 1.5771248e-38 298 254
-0.025626717 0.69599998 -0.017084479 1.4573064e-38 299 254
-0.024336265 0.69400001 -0.017035386 1.0802395e-38 300 254
-0.02308614 0.69300002 -0.01701084 6.7457877e-39 301 254
-0.021871079 0.69300002 -0.01701084 1.8597767e-39 302 254
-0.020656019 0.69300002 -0.01701084 1.2621495e-41 303 254
-0.01944096 0.69300002 -0.01701084 1.294001e-39 304 254
-0.0181733 0.69099998 -0.016961746 7.4082726e-40 305 254
-0.016961746 0.69099998 -0.016961746 7.4125186e-40 306 254
-0.015750192 0.69099998 -0.016961746 3.6918707e-39 307 254
-0.014538639 0.69099998 -0.016961746 4.4435174e-39 308 254
-0.0133078 0.69 -0.0169372 8.2235383e-39 309 254
-0.012062933 0.68800002 -0.016888106 1.4566286e-38 310 254
-0.010856641 0.68800002 -0.016888106 1.5857025e-38 311 254
-0.0096783992 0.69 -0.0169372 1.8154298e-38 312 254
-0.0084440531 0.68800002 -0.016888106 1.7877713e-38 313 254
-0.0072377604 0.68800002 -0.016888106 1.7417399e-38 314 254
-0.0060226996 0.68699998 -0.01686356 1.5850073e-38 315 254
-0.0048181596 0.68699998 -0.01686356 1.3460527e-38 316 254
-0.0036136196 0.68699998 -0.01686356 1.2077592e-38 317 254
-0.0024125867 0.68800002 -0.016888106 9.9628565e-39 318 254
-0.0012062934 0.68800002 -0.016888106 9.5937153e-39 319 254
0 0.68800002 -0.016888106 8.9512157e-39 320 254
0.0012062934 0.68800002 -0.016888106 7.7526725e-39 321 254
0.0024125867 0.68800002 -0.016888106 6.3704808e-39 322 254
0.0036188802 0.68800002 -0.016888106 5.079742e-39 323 254
0.0048391996 0.69 -0.0169372 3.0590219e-39 324 254
0.0060489997 0.69 -0.0169372 3.1512176e-39 325 254
0.0072587994 0.69 -0.0169372 5.3570982e-39 326 254
0.0084686 0.69 -0.0169372 8.0307714e-39 327 254
0.0097204801 0.69300002 -0.01701084 1.0150562e-38 328 254
0.010935539 0.69300002 -0.01701084 1.1256909e-38 329 254
0.012168133 0.69400001 -0.017035386 1.2636967e-38 330 254
0.013384946 0.69400001 -0.017035386 1.3467086e-38 331 254
0.014643839 0.69599998 -0.017084479 1.3834421e-38 332 254
0.015886955 0.69700003 -0.017109027 1.365003e-38 333 254
0.017133573 0.69800001 -0.017133573 1.2731304e-38 334 254
0.018409999 0.69999999 -0.017182667 1.2454358e-38 335 254
0.019665385 0.70099998 -0.017207211 1.2452559e-38 336 254
0.020954086 0.70300001 -0.017256306 1.1530963e-38 337 254
0.02218668 0.70300001 -0.017256306 1.217308e-38 338 254
0.023419274 0.70300001 -0.017256306 1.7152003e-38 339 254
-0.035796054 0.704 -0.018515198 1.410306e-38 291 255
-0.034512613 0.70300001 -0.018488899 1.2997808e-38 292 255
-0.033280019 0.70300001 -0.018488899 1.3366589e-38 293 255
-0.031956252 0.70099998 -0.018436298 1.0337124e-38 294 255
-0.030595668 0.69800001 -0.0183574 9.8761456e-39 295 255
-0.029371841 0.69800001 -0.0183574 1.2732781e-38 296 255
-0.028107686 0.69700003 -0.018331099 1.4945477e-38 297 255
-0.026885614 0.69700003 -0.018331099 1.6600663e-38 298 255
-0.025626717 0.69599998 -0.018304799 1.6508467e-38 299 255
-0.024336265 0.69400001 -0.0182522 1.6050359e-38 300 255
-0.02308614 0.69300002 -0.018225901 1.6050359e-38 301 255
-0.021871079 0.69300002 -0.018225901 1.5682653e-38 302 255
-0.020656019 0.69300002 -0.018225901 1.5037283e-38 303 255
-0.019384852 0.69099998 -0.0181733 1.4756373e-38 304 255
-0.0181733 0.69099998 -0.0181733 1.3834777e-38 305 255
-0.016961746 0.69099998 -0.0181733 1.2085581e-38 306 255
-0.015750192 0.69099998 -0.0181733 1.0057277e-38 307 255
-0.014538639 0.69099998 -0.0181733 6.3738187e-39 308 255
-0.0133078 0.69 -0.018146999 3.792341e-39 309 255
-0.012062933 0.68800002 -0.0180944 1.9470257e-39 310 255
-0.010856641 0.68800002 -0.0180944 7.4848256e-40 311 255
-0.0096503468 0.68800002 -0.0180944 1.2047565e-39 312 255
-0.0084440531 0.68800002 -0.0180944 1.0203653e-39 313 255
-0.0072377604 0.68800002 -0.0180944 1.3959175e-39 314 255
-0.0060314666 0.68800002 -0.0180944 2.5944607e-39 315 255
-0.0048251734 0.68800002 -0.0180944 3.2448397e-39 316 255
-0.0036188802 0.68800002 -0.0180944 4.3508271e-39 317 255
-0.0024125867 0.68800002 -0.0180944 5.9149383e-39 318 255
-0.0012062934 0.68800002 -0.0180944 7.2056771e-39 319 255
0 0.68800002 -0.0180944 8.6811743e-39 320 255
0.0012062934 0.68800002 -0.0180944 9.8797175e-39 321 255
0.0024125867 0.68800002 -0.0180944 1.2084853e-38 322 255
0.0036188802 0.68800002 -0.0180944 1.2638026e-38 323 255
0.0048391996 0.69 -0.018146999 1.3099007e-38 324 255
0.0060489997 0.69 -0.018146999 1.3652181e-38 325 255
0.0072693196 0.69099998 -0.0181733 1.4479791e-38 326 255
0.008480873 0.69099998 -0.0181733 1.4572345e-38 327 255
0.0097204801 0.69300002 -0.018225901 1.4570907e-38 328 255
0.01095132 0.69400001 -0.0182522 1.4110288e-38 329 255
0.012168133 0.69400001 -0.0182522 1.2914266e-38 330 255
0.013423519 0.69599998 -0.018304799 1.1991951e-38 331 255
0.014643839 0.69599998 -0.018304799 1.1713925e-38 332 255
0.015909746 0.69800001 -0.0183574 1.2174544e-38 333 255
0.017133573 0.69800001 -0.0183574 1.2269615e-38 334 255
0.018409999 0.69999999 -0.018409999 1.1808638e-38 335 255
0.019665385 0.70099998 -0.018436298 1.143913e-38 336 255
0.020954086 0.70300001 -0.018488899 1.0885956e-38 337 255
0.022218239 0.704 -0.018515198 1.2541139e-38 338 255
0.023552528 0.70700002 -0.018594101 1.7704094e-38 339 255
0.024792133 0.70700002 -0.018594101 2.0283757e-38 340 255
-0.037030395 0.704 -0.019749546 1.8619924e-38 290 256
-0.035796054 0.704 -0.019749546 1.447112e-38 291 256
-0.034512613 0.70300001 -0.019721493 1.3729255e-38 292 256
-0.03318534 0.70099998 -0.019665385 1.382181e-38 293 256
-0.031910665 0.69999999 -0.019637333 1.143519e-38 294 256
-0.030595668 0.69800001 -0.019581227 1.0605429e-38 295 256
-0.029371841 0.69800001 -0.019581227 1.4098076e-38 296 256
-0.028107686 0.69700003 -0.019553173 1.6218935e-38 297 256
-0.026885614 0.69700003 -0.019553173 1.6041727e-38 298 256
-0.025663542 0.69700003 -0.019553173 1.6963685e-38 299 256
-0.0244064 0.69599998 -0.019525118 1.6324075e-38 300 256
-0.023119451 0.69400001 -0.019469013 1.641627e-38 301 256
-0.021871079 0.69300002 -0.01944096 1.605001e-38 302 256
-0.020656019 0.69300002 -0.01944096 1.5957813e-38 303 256
-0.019384852 0.69099998 -0.019384852 1.5589382e-38 304 256
-0.0181733 0.69099998 -0.019384852 1.5312794e-38 305 256
-0.016961746 0.69099998 -0.019384852 1.4667422e-38 306 256
-0.015750192 0.69099998 -0.019384852 1.4206804e-38 307 256
-0.014538639 0.69099998 -0.019384852 1.3746547e-38 308 256
-0.0133078 0.69 -0.019356798 1.3101178e-38 309 256
-0.012062933 0.68800002 -0.019300694 1.1813676e-38 310 256
-0.010856641 0.68800002 -0.019300694 1.1352698e-38 311 256
-0.0096503468 0.68800002 -0.019300694 1.0708778e-38 312 256
-0.0084440531 0.68800002 -0.019300694 1.0800973e-38 313 256
-0.0072377604 0.68800002 -0.019300694 1.098536e-38 314 256
-0.0060314666 0.68800002 -0.019300694 1.1261948e-38 315 256
-0.0048251734 0.68800002 -0.019300694 1.1813676e-38 316 256
-0.0036188802 0.68800002 -0.019300694 1.1905872e-38 317 256
-0.0024125867 0.68800002 -0.019300694 1.2272859e-38 318 256
-0.0012062934 0.68800002 -0.019300694 1.2365056e-38 319 256
0 0.68800002 -0.019300694 1.3006831e-38 320 256
0.0012097999 0.69 -0.019356798 1.3191223e-38 321 256
0.0024195998 0.69 -0.019356798 1.383587e-38 322 256
0.0036293997 0.69 -0.019356798 1.4296847e-38 323 256
0.0048462129 0.69099998 -0.019384852 1.4940416e-38 324 256
0.0060577663 0.69099998 -0.019384852 1.4479796e-38 325 256
0.0072903596 0.69300002 -0.01944096 1.2551241e-38 326 256
0.0085054198 0.69300002 -0.01944096 1.1537091e-38 327 256
0.0097204801 0.69300002 -0.01944096 1.2729516e-38 328 256
0.01095132 0.69400001 -0.019469013 1.263732e-38 329 256
0.012168133 0.69400001 -0.019469013 1.1256186e-38 330 256
0.013423519 0.69599998 -0.019525118 9.9654475e-39 331 256
0.014643839 0.69599998 -0.019525118 8.4028078e-39 332 256
0.015909746 0.69800001 -0.019581227 9.1407315e-39 333 256
0.017182667 0.69999999 -0.019637333 1.1808288e-38 334 256
0.018409999 0.69999999 -0.019637333 1.1439506e-38 335 256
0.019665385 0.70099998 -0.019665385 1.2080183e-38 336 256
0.020983893 0.704 -0.019749546 1.1803955e-38 337 256
0.022281358 0.70599997 -0.019805651 1.2542221e-38 338 256
0.023552528 0.70700002 -0.019833706 1.7428231e-38 339 256
0.024792133 0.70700002 -0.019833706 2.0651465e-38 340 256
-0.038264744 0.704 -0.020983893 2.2864519e-38 289 257
-0.037030395 0.704 -0.020983893 1.9265291e-38 290 257
-0.035796054 0.704 -0.020983893 1.4747705e-38 291 257
-0.034512613 0.70300001 -0.020954086 1.4184103e-38 292 257
-0.03318534 0.70099998 -0.020894472 1.4276298e-38 293 257
-0.031910665 0.69999999 -0.020864666 1.280945e-38 294 257
-0.030595668 0.69800001 -0.020805053 1.1426516e-38 295 257
-0.029371841 0.69800001 -0.020805053 1.3164566e-38 296 257
-0.028148014 0.69800001 -0.020805053 1.4178359e-38 297 257
-0.026885614 0.69700003 -0.020775247 1.4369956e-38 298 257
-0.025663542 0.69700003 -0.020775247 1.6675206e-38 299 257
-0.0244064 0.69599998 -0.020745439 1.6500909e-38 300 257
-0.023119451 0.69400001 -0.020685827 1.7515059e-38 301 257
-0.021871079 0.69300002 -0.020656019 1.6416268e-38 302 257
-0.020656019 0.69300002 -0.020656019 1.6324072e-38 303 257
-0.01944096 0.69300002 -0.020656019 1.5497911e-38 304 257
-0.0181733 0.69099998 -0.020596405 1.5405357e-38 305 257
-0.016961746 0.69099998 -0.020596405 1.5129852e-38 306 257
-0.015750192 0.69099998 -0.020596405 1.5129852e-38 307 257
-0.014538639 0.69099998 -0.020596405 1.5590107e-38 308 257
-0.0133078 0.69 -0.020566599 1.5129129e-38 309 257
-0.012097999 0.69 -0.020566599 1.4666353e-38 310 257
-0.010888199 0.69 -0.020566599 1.494294e-38 311 257
-0.0096783992 0.69 -0.020566599 1.4851467e-38 312 257
-0.0084686 0.69 -0.020566599 1.4943663e-38 313 257
-0.0072377604 0.68800002 -0.020506985 1.5310646e-38 314 257
-0.0060314666 0.68800002 -0.020506985 1.503406e-38 315 257
-0.0048251734 0.68800002 -0.020506985 1.4942584e-38 316 257
-0.0036188802 0.68800002 -0.020506985 1.4850387e-38 317 257
-0.0024125867 0.68800002 -0.020506985 1.5033336e-38 318 257
-0.0012062934 0.68800002 -0.020506985 1.475675e-38 319 257
0 0.68800002 -0.020506985 1.4571636e-38 320 257
0.0012097999 0.69 -0.020566599 1.4571636e-38 321 257
0.0024231065 0.69099998 -0.020596405 1.4756022e-38 322 257
0.0036346598 0.69099998 -0.020596405 1.4756022e-38 323 257
0.0048462129 0.69099998 -0.020596405 1.4204286e-38 324 257
0.0060753003 0.69300002 -0.020656019 1.3466362e-38 325 257
0.0072903596 0.69300002 -0.020656019 9.7893379e-39 326 257
0.0085054198 0.69300002 -0.020656019 7.5766442e-39 327 257
0.0097345067 0.69400001 -0.020685827 9.3208208e-39 328 257
0.01095132 0.69400001 -0.020685827 8.6754514e-39 329 257
0.0122032 0.69599998 -0.020745439 8.2151949e-39 330 257
0.013423519 0.69599998 -0.020745439 8.3995876e-39 331 257
0.01466488 0.69700003 -0.020775247 7.3893845e-39 332 257
0.015909746 0.69800001 -0.020805053 8.9563501e-39 333 257
0.017182667 0.69999999 -0.020864666 1.2175992e-38 334 257
0.018436298 0.70099998 -0.020894472 1.1715372e-38 335 257
0.019721493 0.70300001 -0.020954086 1.1895796e-38 336 257
0.020983893 0.704 -0.020983893 1.2080186e-38 337 257
0.022281358 0.70599997 -0.021043506 1.2726254e-38 338 257
0.023552528 0.70700002 -0.021073313 1.7428231e-38 339 257
0.024792133 0.70700002 -0.021073313 2.0744017e-38 340 257
-0.038427804 0.70700002 -0.022312919 2.2864519e-38 289 258
-0.037188202 0.70700002 -0.022312919 2.0003575e-38 290 258
-0.035897743 0.70599997 -0.022281358 1.5855132e-38 291 258
-0.034561705 0.704 -0.022218239 1.4732941e-38 292 258
-0.03332736 0.704 -0.022218239 1.4179769e-38 293 258
-0.031956252 0.70099998 -0.022123558 1.3997526e-38 294 258
-0.030683333 0.69999999 -0.022091998 1.3628743e-38 295 258
-0.029371841 0.69800001 -0.02202888 1.408325e-38 296 258
-0.028148014 0.69800001 -0.02202888 1.113335e-38 297 258
-0.026885614 0.69700003 -0.02199732 1.3781513e-38 298 258
-0.025663542 0.69700003 -0.02199732 1.4519078e-38 299 258
-0.0244064 0.69599998 -0.021965759 1.3990396e-38 300 258
-0.023119451 0.69400001 -0.021902639 1.684846e-38 301 258
-0.021902639 0.69400001 -0.021902639 1.5027579e-38 302 258
-0.020685827 0.69400001 -0.021902639 1.6226123e-38 303 258
-0.01944096 0.69300002 -0.021871079 1.5496839e-38 304 258
-0.018225901 0.69300002 -0.021871079 1.5496839e-38 305 258
-0.01701084 0.69300002 -0.021871079 1.4853631e-38 306 258
-0.015795778 0.69300002 -0.021871079 1.4761435e-38 307 258
-0.014538639 0.69099998 -0.021807959 1.4946186e-38 308 258
-0.013327086 0.69099998 -0.021807959 1.3286305e-38 309 258
-0.012097999 0.69 -0.021776399 1.0795954e-38 310 258
-0.010888199 0.69 -0.021776399 1.0611562e-38 311 258
-0.0096783992 0.69 -0.021776399 1.2451885e-38 312 258
-0.0084686 0.69 -0.021776399 1.401885e-38 313 258
-0.0072587994 0.69 -0.021776399 1.3924487e-38 314 258
-0.0060489997 0.69 -0.021776399 1.3095087e-38 315 258
-0.0048391996 0.69 -0.021776399 1.1904096e-38 316 258
-0.0036293997 0.69 -0.021776399 1.1904096e-38 317 258
-0.0024195998 0.69 -0.021776399 1.2445764e-38 318 258
-0.0012097999 0.69 -0.021776399 1.1984786e-38 319 258
0 0.69 -0.021776399 1.1163287e-38 320 258
0.0012097999 0.69 -0.021776399 1.0978897e-38 321 258
0.0024231065 0.69099998 -0.021807959 1.1989435e-38 322 258
0.0036451798 0.69300002 -0.021871079 1.189724e-38 323 258
0.00486024 0.69300002 -0.021871079 1.0705534e-38 324 258
0.0060753003 0.69300002 -0.021871079 1.1903718e-38 325 258
0.0072903596 0.69300002 -0.021871079 9.971581e-39 326 258
0.0085176928 0.69400001 -0.021902639 6.9291252e-39 327 258
0.0097345067 0.69400001 -0.021902639 8.8587665e-39 328 258
0.010982879 0.69599998 -0.021965759 8.4899839e-39 329 258
0.0122032 0.69599998 -0.021965759 9.0460318e-39 330 258
0.013442807 0.69700003 -0.02199732 1.0060184e-38 331 258
0.01468592 0.69800001 -0.02202888 1.0887055e-38 332 258
0.015955333 0.69999999 -0.022091998 1.1440227e-38 333 258
0.017182667 0.69999999 -0.022091998 1.2451134e-38 334 258
0.018436298 0.70099998 -0.022123558 1.1898319e-38 335 258
0.019721493 0.70300001 -0.02218668 1.171212e-38 336 258
0.020983893 0.704 -0.022218239 1.1528089e-38 337 258
0.022281358 0.70599997 -0.022281358 1.2450025e-38 338 258
0.023519212 0.70599997 -0.022281358 1.7520785e-38 339 258
-0.037188202 0.70700002 -0.023552528 1.9819909e-38 290 259
-0.035897743 0.70599997 -0.023519212 1.6777812e-38 291 259
-0.034561705 0.704 -0.023452586 1.6121618e-38 292 259
-0.03332736 0.704 -0.023452586 1.3908924e-38 293 259
-0.032047424 0.70300001 -0.023419274 1.4455967e-38 294 259
-0.030814834 0.70300001 -0.023419274 1.417902e-38 295 259
-0.029455997 0.69999999 -0.023319334 1.4634612e-38 296 259
-0.028148014 0.69800001 -0.023252707 1.1407765e-38 297 259
-0.026885614 0.69700003 -0.023219392 1.3591674e-38 298 259
-0.025663542 0.69700003 -0.023219392 1.2856978e-38 299 259
-0.0244064 0.69599998 -0.023186078 1.2122337e-38 300 259
-0.023186078 0.69599998 -0.023186078 1.4702021e-38 301 259
-0.021902639 0.69400001 -0.023119451 1.2982005e-38 302 259
-0.020685827 0.69400001 -0.023119451 1.6393243e-38 303 259
-0.01944096 0.69300002 -0.02308614 1.5029393e-38 304 259
-0.018225901 0.69300002 -0.02308614 1.6320131e-38 305 259
-0.01701084 0.69300002 -0.02308614 1.5220622e-38 306 259
-0.015795778 0.69300002 -0.02308614 1.503623e-38 307 259
-0.014538639 0.69099998 -0.023019511 1.522206e-38 308 259
-0.013327086 0.69099998 -0.023019511 1.2825332e-38 309 259
-0.012115533 0.69099998 -0.023019511 8.6754696e-39 310 259
-0.010888199 0.69 -0.022986198 8.2144915e-39 311 259
-0.0096783992 0.69 -0.022986198 9.5952805e-39 312 259
-0.0084686 0.69 -0.022986198 1.0978215e-38 313 259
-0.0072587994 0.69 -0.022986198 1.1528496e-38 314 259
-0.0060489997 0.69 -0.022986198 1.0514343e-38 315 259
-0.0048391996 0.69 -0.022986198 9.139675e-39 316 259
-0.0036293997 0.69 -0.022986198 9.231872e-39 317 259
-0.0024195998 0.69 -0.022986198 8.5818335e-39 318 259
-0.0012115532 0.69099998 -0.023019511 8.3974408e-39 319 259
0 0.69099998 -0.023019511 8.9509621e-39 320 259
0.0012115532 0.69099998 -0.023019511 8.3977883e-39 321 259
0.0024231065 0.69099998 -0.023019511 9.4097542e-39 322 259
0.0036451798 0.69300002 -0.02308614 9.5019499e-39 323 259
0.00486024 0.69300002 -0.02308614 8.0358203e-39 324 259
0.0060753003 0.69300002 -0.02308614 1.0156679e-38 325 259
0.0073008798 0.69400001 -0.023119451 1.0797026e-38 326 259
0.0085176928 0.69400001 -0.023119451 9.967265e-39 327 259
0.0097345067 0.69400001 -0.023119451 1.0335322e-38 328 259
0.010982879 0.69599998 -0.023186078 1.0151291e-38 329 259
0.012220734 0.69700003 -0.023219392 1.0704462e-38 330 259
0.013442807 0.69700003 -0.023219392 1.19952e-38 331 259
0.01468592 0.69800001 -0.023252707 1.2636248e-38 332 259
0.015955333 0.69999999 -0.023319334 1.2451855e-38 333 259
0.017207211 0.70099998 -0.023352645 1.2174544e-38 334 259
0.018488899 0.70300001 -0.023419274 1.180612e-38 335 259
0.019721493 0.70300001 -0.023419274 1.1713556e-38 336 259
0.020983893 0.704 -0.023452586 1.1529163e-38 337 259
0.022281358 0.70599997 -0.023519212 1.2632975e-38 338 259
0.023652466 0.70999998 -0.023652466 1.7795571e-38 339 259
0.024897331 0.70999998 -0.023652466 2.0653616e-38 340 259
-0.0372408 0.708 -0.024827199 1.9174543e-38 290 260
-0.035897743 0.70599997 -0.024757065 1.6039891e-38 291 260
-0.034561705 0.704 -0.024686933 1.7231598e-38 292 260
-0.03332736 0.704 -0.024686933 1.5848663e-38 293 260
-0.032047424 0.70300001 -0.024651866 1.6582603e-38 294 260
-0.030814834 0.70300001 -0.024651866 1.4277352e-38 295 260
-0.029582238 0.70300001 -0.024651866 1.4075303e-38 296 260
-0.028148014 0.69800001 -0.024476532 1.2416141e-38 297 260
-0.026924185 0.69800001 -0.024476532 1.4335705e-38 298 260
-0.025663542 0.69700003 -0.024441468 1.4611932e-38 299 260
-0.024441468 0.69700003 -0.024441468 1.4149907e-38 300 260
-0.023186078 0.69599998 -0.0244064 1.3596733e-38 301 260
-0.021902639 0.69400001 -0.024336265 1.2857054e-38 302 260
-0.020685827 0.69400001 -0.024336265 1.4054879e-38 303 260
-0.019469013 0.69400001 -0.024336265 1.1879624e-38 304 260
-0.0182522 0.69400001 -0.024336265 1.5844036e-38 305 260
-0.01701084 0.69300002 -0.024301201 1.5679435e-38 306 260
-0.015795778 0.69300002 -0.024301201 1.558688e-38 307 260
-0.014580719 0.69300002 -0.024301201 1.5313537e-38 308 260
-0.01336566 0.69300002 -0.024301201 1.3654014e-38 309 260
-0.012115533 0.69099998 -0.024231065 1.1161865e-38 310 260
-0.01090398 0.69099998 -0.024231065 1.0147713e-38 311 260
-0.0096924258 0.69099998 -0.024231065 1.0786615e-38 312 260
-0.008480873 0.69099998 -0.024231065 1.0325637e-38 313 260
-0.0072693196 0.69099998 -0.024231065 9.7767781e-39 314 260
-0.0060577663 0.69099998 -0.024231065 1.0422148e-38 315 260
-0.0048462129 0.69099998 -0.024231065 1.0518658e-38 316 260
-0.0036346598 0.69099998 -0.024231065 1.0426461e-38 317 260
-0.0024231065 0.69099998 -0.024231065 9.2304259e-39 318 260
-0.0012115532 0.69099998 -0.024231065 1.0244219e-38 319 260
0 0.69099998 -0.024231065 1.1257279e-38 320 260
0.0012115532 0.69099998 -0.024231065 1.079666e-38 321 260
0.00243012 0.69300002 -0.024301201 1.1344789e-38 322 260
0.0036451798 0.69300002 -0.024301201 1.1897963e-38 323 260
0.00486024 0.69300002 -0.024301201 1.1165435e-38 324 260
0.0060753003 0.69300002 -0.024301201 1.1718609e-38 325 260
0.0073008798 0.69400001 -0.024336265 1.171789e-38 326 260
0.0085176928 0.69400001 -0.024336265 1.2086314e-38 327 260
0.0097345067 0.69400001 -0.024336265 1.1809007e-38 328 260
0.010982879 0.69599998 -0.0244064 1.2177791e-38 329 260
0.012220734 0.69700003 -0.024441468 1.1808285e-38 330 260
0.013442807 0.69700003 -0.024441468 1.1900481e-38 331 260
0.014727999 0.69999999 -0.024546666 1.1808641e-38 332 260
0.015978126 0.70099998 -0.024581732 1.1439859e-38 333 260
0.017207211 0.70099998 -0.024581732 1.2173108e-38 334 260
0.018488899 0.70300001 -0.024651866 1.2449336e-38 335 260
0.019749546 0.704 -0.024686933 1.2542241e-38 336 260
0.021043506 0.70599997 -0.024757065 1.2542241e-38 337 260
0.022312919 0.70700002 -0.024792133 1.2910648e-38 338 260
0.023652466 0.70999998 -0.024897331 1.7612625e-38 339 260
0.024897331 0.70999998 -0.024897331 2.0377036e-38 340 260
-0.038753927 0.713 -0.026252659 2.2680848e-38 289 261
-0.0372408 0.708 -0.026068559 1.8621372e-38 290 261
-0.035897743 0.70599997 -0.025994917 1.5210134e-38 291 261
-0.034561705 0.704 -0.02592128 1.7045781e-38 292 261
-0.03332736 0.704 -0.02592128 1.6308216e-38 293 261
-0.032093015 0.704 -0.02592128 1.7044673e-38 294 261
-0.030814834 0.70300001 -0.025884461 1.6122356e-38 295 261
-0.029582238 0.70300001 -0.025884461 1.44509e-38 296 261
-0.028228667 0.69999999 -0.025773998 1.2238564e-38 297 261
-0.026924185 0.69800001 -0.025700359 1.4432547e-38 298 261
-0.025700359 0.69800001 -0.025700359 1.3602427e-38 299 261
-0.024441468 0.69700003 -0.025663542 1.4427548e-38 300 261
-0.023186078 0.69599998 -0.025626717 1.4335352e-38 301 261
-0.021965759 0.69599998 -0.025626717 1.3594913e-38 302 261
-0.020745439 0.69599998 -0.025626717 1.2122294e-38 303 261
-0.019525118 0.69599998 -0.025626717 1.2045968e-38 304 261
-0.0182522 0.69400001 -0.025553079 1.7301119e-38 305 261
-0.01701084 0.69300002 -0.02551626 1.6689259e-38 306 261
-0.015795778 0.69300002 -0.02551626 1.6505228e-38 307 261
-0.014580719 0.69300002 -0.02551626 1.531354e-38 308 261
-0.01336566 0.69300002 -0.02551626 1.3930605e-38 309 261
-0.012150601 0.69300002 -0.02551626 1.181262e-38 310 261
-0.01090398 0.69099998 -0.025442619 1.181262e-38 311 261
-0.0096924258 0.69099998 -0.025442619 1.2912841e-38 312 261
-0.008480873 0.69099998 -0.025442619 1.2267471e-38 313 261
-0.0072693196 0.69099998 -0.025442619 1.1162931e-38 314 261
-0.0060577663 0.69099998 -0.025442619 1.1993051e-38 315 261
-0.0048462129 0.69099998 -0.025442619 1.254515e-38 316 261
-0.0036346598 0.69099998 -0.025442619 1.2452954e-38 317 261
-0.0024231065 0.69099998 -0.025442619 1.1533869e-38 318 261
-0.0012115532 0.69099998 -0.025442619 1.1994847e-38 319 261
0 0.69099998 -0.025442619 1.2913925e-38 320 261
0.0012115532 0.69099998 -0.025442619 1.2084525e-38 321 261
0.00243012 0.69300002 -0.02551626 9.5088078e-39 322 261
0.0036451798 0.69300002 -0.02551626 1.0338568e-38 323 261
0.00486024 0.69300002 -0.02551626 1.0981421e-38 324 261
0.0060840664 0.69400001 -0.025553079 1.0981421e-38 325 261
0.0073008798 0.69400001 -0.025553079 1.1257279e-38 326 261
0.0085176928 0.69400001 -0.025553079 1.1257279e-38 327 261
0.0097625591 0.69599998 -0.025626717 1.1256912e-38 328 261
0.010982879 0.69599998 -0.025626717 1.1902282e-38 329 261
0.012220734 0.69700003 -0.025663542 1.1993033e-38 330 261
0.013442807 0.69700003 -0.025663542 1.1900837e-38 331 261
0.014727999 0.69999999 -0.025773998 1.1807922e-38 332 261
0.015978126 0.70099998 -0.025810819 1.1623171e-38 333 261
0.017256306 0.70300001 -0.025884461 1.1713569e-38 334 261
0.018515198 0.704 -0.02592128 1.2174547e-38 335 261
0.019749546 0.704 -0.02592128 1.2819549e-38 336 261
0.021073313 0.70700002 -0.02603174 1.2819549e-38 337 261
0.022344479 0.708 -0.026068559 1.3188313e-38 338 261
0.023685781 0.71100003 -0.026179021 1.7705898e-38 339 261
0.024932399 0.71100003 -0.026179021 2.0652544e-38 340 261
-0.040060159 0.71399999 -0.02754136 2.2495736e-38 288 262
-0.038753927 0.713 -0.027502786 2.2864519e-38 289 262
-0.037345998 0.70999998 -0.027387066 1.8620643e-38 290 262
-0.03599944 0.708 -0.027309919 1.44722e-38 291 262
-0.034659892 0.70599997 -0.027232772 1.6308202e-38 292 262
-0.033422034 0.70599997 -0.027232772 1.6031257e-38 293 262
-0.032093015 0.704 -0.027155625 1.5938698e-38 294 262
-0.030814834 0.70300001 -0.027117053 1.695249e-38 295 262
-0.029582238 0.70300001 -0.027117053 1.6121638e-38 296 262
-0.028349647 0.70300001 -0.027117053 1.4185529e-38 297 262
-0.027001332 0.69999999 -0.027001332 1.4634612e-38 298 262
-0.025700359 0.69800001 -0.026924185 1.2514114e-38 299 262
-0.024476532 0.69800001 -0.026924185 1.4527652e-38 300 262
-0.023219392 0.69700003 -0.026885614 1.3790087e-38 301 262
-0.021965759 0.69599998 -0.026847038 1.406201e-38 302 262
-0.020745439 0.69599998 -0.026847038 1.30475e-38 303 262
-0.019525118 0.69599998 -0.026847038 1.3056896e-38 304 262
-0.0182522 0.69400001 -0.026769891 1.7943624e-38 305 262
-0.017035386 0.69400001 -0.026769891 1.7056599e-38 306 262
-0.015818574 0.69400001 -0.026769891 1.6964404e-38 307 262
-0.014580719 0.69300002 -0.02673132 1.5221697e-38 308 262
-0.01336566 0.69300002 -0.02673132 1.3838404e-38 309 262
-0.012150601 0.69300002 -0.02673132 1.1994847e-38 310 262
-0.01090398 0.69099998 -0.026654173 1.1533869e-38 311 262
-0.0096924258 0.69099998 -0.026654173 1.135055e-38 312 262
-0.008480873 0.69099998 -0.026654173 1.1995919e-38 313 262
-0.0072693196 0.69099998 -0.026654173 1.2269989e-38 314 262
-0.0060577663 0.69099998 -0.026654173 1.2362185e-38 315 262
-0.0048462129 0.69099998 -0.026654173 1.2178515e-38 316 262
-0.0036346598 0.69099998 -0.026654173 1.1809733e-38 317 262
-0.0024231065 0.69099998 -0.026654173 1.0891377e-38 318 262
-0.00121506 0.69300002 -0.02673132 1.0891377e-38 319 262
0 0.69300002 -0.02673132 1.1810103e-38 320 262
0.00121506 0.69300002 -0.02673132 1.144132e-38 321 262
0.00243012 0.69300002 -0.02673132 8.957799e-39 322 262
0.0036504399 0.69400001 -0.026769891 9.6031684e-39 323 262
0.0048672534 0.69400001 -0.026769891 1.0521528e-38 324 262
0.0060840664 0.69400001 -0.026769891 1.0706279e-38 325 262
0.0073008798 0.69400001 -0.026769891 1.107397e-38 326 262
0.0085422397 0.69599998 -0.026847038 1.1350197e-38 327 262
0.0097625591 0.69599998 -0.026847038 1.1534578e-38 328 262
0.01099866 0.69700003 -0.026885614 1.1534578e-38 329 262
0.012238266 0.69800001 -0.026924185 1.1808285e-38 330 262
0.013462093 0.69800001 -0.026924185 1.1900481e-38 331 262
0.014727999 0.69999999 -0.027001332 1.1625326e-38 332 262
0.015978126 0.70099998 -0.027039904 1.1533131e-38 333 262
0.017256306 0.70300001 -0.027117053 1.1622805e-38 334 262
0.018515198 0.704 -0.027155625 1.1806836e-38 335 262
0.019805651 0.70599997 -0.027232772 1.2818828e-38 336 262
0.021103119 0.708 -0.027309919 1.3002859e-38 337 262
0.022407599 0.70999998 -0.027387066 1.3096114e-38 338 262
0.023685781 0.71100003 -0.027425639 1.7705895e-38 339 262
0.025107734 0.71600002 -0.027618507 2.1021322e-38 340 262
0.026363119 0.71600002 -0.027618507 2.2312061e-38 341 262
-0.040060159 0.71399999 -0.028793238 2.2771965e-38 288 263
-0.038753927 0.713 -0.028752912 2.304891e-38 289 263
-0.037398599 0.71100003 -0.028672259 1.9450404e-38 290 263
-0.03599944 0.708 -0.02855128 1.5393796e-38 291 263
-0.034659892 0.70599997 -0.028470624 1.6674458e-38 292 263
-0.033422034 0.70599997 -0.028470624 1.5752502e-38 293 263
-0.032093015 0.704 -0.028389972 1.5010991e-38 294 263
-0.030858666 0.704 -0.028389972 1.731588e-38 295 263
-0.029624319 0.704 -0.028389972 1.6400765e-38 296 263
-0.028349647 0.70300001 -0.028349647 1.5386612e-38 297 263
-0.027117053 0.70300001 -0.028349647 1.4923817e-38 298 263
-0.025773998 0.69999999 -0.028228667 1.4462839e-38 299 263
-0.024476532 0.69800001 -0.028148014 1.5099557e-38 300 263
-0.023219392 0.69700003 -0.028107686 1.3532231e-38 301 263
-0.02199732 0.69700003 -0.028107686 1.3791186e-38 302 263
-0.020775247 0.69700003 -0.028107686 1.1670326e-38 303 263
-0.019553173 0.69700003 -0.028107686 1.3056893e-38 304 263
-0.018304799 0.69599998 -0.028067358 1.8127652e-38 305 263
-0.017035386 0.69400001 -0.027986705 1.7057318e-38 306 263
-0.015818574 0.69400001 -0.027986705 1.6688896e-38 307 263
-0.01460176 0.69400001 -0.027986705 1.5037302e-38 308 263
-0.013384946 0.69400001 -0.027986705 1.4023151e-38 309 263
-0.012150601 0.69300002 -0.027946379 1.2823166e-38 310 263
-0.010935539 0.69300002 -0.027946379 1.2546219e-38 311 263
-0.0097204801 0.69300002 -0.027946379 1.1627137e-38 312 263
-0.0085054198 0.69300002 -0.027946379 1.2088115e-38 313 263
-0.0072903596 0.69300002 -0.027946379 1.2363979e-38 314 263
-0.0060753003 0.69300002 -0.027946379 1.2179948e-38 315 263
-0.00486024 0.69300002 -0.027946379 1.2179592e-38 316 263
-0.0036451798 0.69300002 -0.027946379 1.2087396e-38 317 263
-0.00243012 0.69300002 -0.027946379 1.2546222e-38 318 263
-0.00121506 0.69300002 -0.027946379 1.1808657e-38 319 263
0 0.69300002 -0.027946379 1.1346607e-38 320 263
0.00121506 0.69300002 -0.027946379 1.1162215e-38 321 263
0.00243012 0.69300002 -0.027946379 1.033642e-38 322 263
0.0036504399 0.69400001 -0.027986705 9.9676378e-39 323 263
0.0048672534 0.69400001 -0.027986705 9.6932117e-39 324 263
0.0060840664 0.69400001 -0.027986705 9.6932117e-39 325 263
0.0073219193 0.69599998 -0.028067358 1.0339285e-38 326 263
0.0085422397 0.69599998 -0.028067358 1.1353797e-38 327 263
0.0097765867 0.69700003 -0.028107686 1.1627493e-38 328 263
0.01099866 0.69700003 -0.028107686 1.1442743e-38 329 263
0.012238266 0.69800001 -0.028148014 1.1809007e-38 330 263
0.013462093 0.69800001 -0.028148014 1.1809007e-38 331 263
0.014727999 0.69999999 -0.028228667 1.1718241e-38 332 263
0.016023712 0.70300001 -0.028349647 1.1718241e-38 333 263
0.017256306 0.70300001 -0.028349647 1.2357492e-38 334 263
0.018515198 0.704 -0.028389972 1.2449689e-38 335 263
0.019805651 0.70599997 -0.028470624 1.2451124e-38 336 263
0.021073313 0.70700002 -0.028510952 1.2635155e-38 337 263
0.022407599 0.70999998 -0.028631933 1.3003915e-38 338 263
0.023685781 0.71100003 -0.028672259 1.7798089e-38 339 263
0.025037598 0.71399999 -0.028793238 2.1389386e-38 340 263
0.026289478 0.71399999 -0.028793238 2.2311342e-38 341 263
-0.040004052 0.713 -0.030003037 2.2771965e-38 288 264
-0.038753927 0.713 -0.030003037 2.3141106e-38 289 264
-0.037398599 0.71100003 -0.029918881 1.9819912e-38 290 264
-0.036101133 0.70999998 -0.029876797 1.6039891e-38 291 264
-0.034758076 0.708 -0.02979264 1.6584781e-38 292 264
-0.033469379 0.70700002 -0.029750559 1.4648672e-38 293 264
-0.032184184 0.70599997 -0.029708479 1.4084349e-38 294 264
-0.030858666 0.704 -0.029624319 1.6573631e-38 295 264
-0.029624319 0.704 -0.029624319 1.5660329e-38 296 264
-0.028349647 0.70300001 -0.029582238 1.602911e-38 297 264
-0.027117053 0.70300001 -0.029582238 1.5480972e-38 298 264
-0.025773998 0.69999999 -0.029455997 1.5665364e-38 299 264
-0.024476532 0.69800001 -0.029371841 1.6031259e-38 300 264
-0.023252707 0.69800001 -0.029371841 1.5108943e-38 301 264
-0.02199732 0.69700003 -0.02932976 1.462852e-38 302 264
-0.020775247 0.69700003 -0.02932976 9.9261846e-39 303 264
-0.019581227 0.69800001 -0.029371841 1.3056533e-38 304 264
-0.018331099 0.69700003 -0.02932976 1.8126933e-38 305 264
-0.017084479 0.69599998 -0.029287677 1.7242068e-38 306 264
-0.015864158 0.69599998 -0.029287677 1.6781091e-38 307 264
-0.01460176 0.69400001 -0.029203519 1.5037302e-38 308 264
-0.013384946 0.69400001 -0.029203519 1.4299737e-38 309 264
-0.012168133 0.69400001 -0.029203519 1.3100119e-38 310 264
-0.01095132 0.69400001 -0.029203519 1.3007923e-38 311 264
-0.0097345067 0.69400001 -0.029203519 1.2823529e-38 312 264
-0.0085054198 0.69300002 -0.029161438 1.2823529e-38 313 264
-0.0072903596 0.69300002 -0.029161438 1.2180676e-38 314 264
-0.0060753003 0.69300002 -0.029161438 1.1996645e-38 315 264
-0.00486024 0.69300002 -0.029161438 1.218031e-38 316 264
-0.0036451798 0.69300002 -0.029161438 1.2364703e-38 317 264
-0.00243012 0.69300002 -0.029161438 1.300791e-38 318 264
-0.00121506 0.69300002 -0.029161438 1.1993398e-38 319 264
0 0.69300002 -0.029161438 9.6906823e-39 320 264
0.0012168133 0.69400001 -0.029203519 8.9531159e-39 321 264
0.0024336267 0.69400001 -0.029203519 9.8725681e-39 322 264
0.0036504399 0.69400001 -0.029203519 9.8725681e-39 323 264
0.0048672534 0.69400001 -0.029203519 9.0481954e-39 324 264
0.0061015999 0.69599998 -0.029287677 9.417338e-39 325 264
0.0073219193 0.69599998 -0.029287677 1.0706273e-38 326 264
0.0085545136 0.69700003 -0.02932976 1.1536393e-38 327 264
0.0097765867 0.69700003 -0.02932976 1.1627139e-38 328 264
0.01101444 0.69800001 -0.029371841 1.1534944e-38 329 264
0.012238266 0.69800001 -0.029371841 1.1625339e-38 330 264
0.013500666 0.69999999 -0.029455997 1.1625339e-38 331 264
0.014749039 0.70099998 -0.029498078 1.1993035e-38 332 264
0.016023712 0.70300001 -0.029582238 1.254585e-38 333 264
0.017280852 0.704 -0.029624319 1.2634802e-38 334 264
0.018515198 0.704 -0.029624319 1.2358575e-38 335 264
0.019805651 0.70599997 -0.029708479 1.2451121e-38 336 264
0.021073313 0.70700002 -0.029750559 1.2635152e-38 337 264
0.022407599 0.70999998 -0.029876797 1.3464175e-38 338 264
0.023685781 0.71100003 -0.029918881 1.8166152e-38 339 264
0.025037598 0.71399999 -0.030045118 2.1205718e-38 340 264
0.026289478 0.71399999 -0.030045118 2.1943283e-38 341 264
-0.040004052 0.713 -0.031253166 2.2496454e-38 288 265
-0.038753927 0.713 -0.031253166 2.2957431e-38 289 265
-0.037398599 0.71100003 -0.031165501 1.8807558e-38 290 265
-0.036101133 0.70999998 -0.031121666 1.4935342e-38 291 265
-0.034856264 0.70999998 -0.031121666 1.631072e-38 292 265
-0.033516716 0.708 -0.031034 1.4927786e-38 293 265
-0.032229774 0.70700002 -0.030990168 1.4824081e-38 294 265
-0.030946331 0.70599997 -0.030946331 1.4270908e-38 295 265
-0.029624319 0.704 -0.030858666 1.4173693e-38 296 265
-0.028349647 0.70300001 -0.030814834 1.6109801e-38 297 265
-0.027117053 0.70300001 -0.030814834 1.4465025e-38 298 265
-0.025810819 0.70099998 -0.030727165 1.5110395e-38 299 265
-0.024546666 0.69999999 -0.030683333 1.5755042e-38 300 265
-0.023252707 0.69800001 -0.030595668 1.6123824e-38 301 265
-0.02202888 0.69800001 -0.030595668 1.4634285e-38 302 265
-0.020805053 0.69800001 -0.030595668 9.3791344e-39 303 265
-0.019581227 0.69800001 -0.030595668 1.3331685e-38 304 265
-0.018331099 0.69700003 -0.030551834 1.803402e-38 305 265
-0.017109027 0.69700003 -0.030551834 1.7333542e-38 306 265
-0.015864158 0.69599998 -0.030507999 1.7149151e-38 307 265
-0.014643839 0.69599998 -0.030507999 1.5222413e-38 308 265
-0.013423519 0.69599998 -0.030507999 1.3931674e-38 309 265
-0.0122032 0.69599998 -0.030507999 1.1997011e-38 310 265
-0.01095132 0.69400001 -0.030420333 1.2089567e-38 311 265
-0.0097345067 0.69400001 -0.030420333 1.2547668e-38 312 265
-0.0085176928 0.69400001 -0.030420333 1.2547668e-38 313 265
-0.0073008798 0.69400001 -0.030420333 1.2087409e-38 314 265
-0.0060840664 0.69400001 -0.030420333 1.2179963e-38 315 265
-0.0048672534 0.69400001 -0.030420333 1.217996e-38 316 265
-0.0036451798 0.69300002 -0.0303765 1.217996e-38 317 265
-0.00243012 0.69300002 -0.0303765 1.2454749e-38 318 265
-0.0012168133 0.69400001 -0.030420333 1.2085967e-38 319 265
0 0.69400001 -0.030420333 1.1075408e-38 320 265
0.0012168133 0.69400001 -0.030420333 1.0891377e-38 321 265
0.0024336267 0.69400001 -0.030420333 1.2175997e-38 322 265
0.0036609597 0.69599998 -0.030507999 1.1530628e-38 323 265
0.0048812795 0.69599998 -0.030507999 9.3258459e-39 324 265
0.0061015999 0.69599998 -0.030507999 1.0800976e-38 325 265
0.00733244 0.69700003 -0.030551834 1.2177809e-38 326 265
0.0085545136 0.69700003 -0.030551834 1.1440244e-38 327 265
0.0097765867 0.69700003 -0.030551834 1.1624635e-38 328 265
0.01101444 0.69800001 -0.030595668 1.1624635e-38 329 265
0.012238266 0.69800001 -0.030595668 1.1533872e-38 330 265
0.013500666 0.69999999 -0.030683333 1.1441676e-38 331 265
0.014812159 0.704 -0.030858666 1.2267827e-38 332 265
0.016046507 0.704 -0.030858666 1.2820642e-38 333 265
0.017280852 0.704 -0.030858666 1.2912465e-38 334 265
0.018567799 0.70599997 -0.030946331 1.2636237e-38 335 265
0.019833706 0.70700002 -0.030990168 1.2636587e-38 336 265
0.021073313 0.70700002 -0.030990168 1.3005011e-38 337 265
0.022407599 0.70999998 -0.031121666 1.4292137e-38 338 265
0.023685781 0.71100003 -0.031165501 1.8348745e-38 339 265
0.025037598 0.71399999 -0.031296998 2.1022406e-38 340 265
0.026289478 0.71399999 -0.031296998 2.1575578e-38 341 265
-0.040060159 0.71399999 -0.032548878 2.2680122e-38 288 266
-0.038753927 0.713 -0.032503292 2.2864513e-38 289 266
-0.037398599 0.71100003 -0.032412119 1.8347296e-38 290 266
-0.036101133 0.70999998 -0.032366529 1.4014462e-38 291 266
-0.034856264 0.70999998 -0.032366529 1.5761155e-38 292 266
-0.033516716 0.708 -0.03227536 1.5115786e-38 293 266
-0.032229774 0.70700002 -0.032229774 1.4644732e-38 294 266
-0.030946331 0.70599997 -0.032184184 1.2985209e-38 295 266
-0.029624319 0.704 -0.032093015 1.3334561e-38 296 266
-0.028349647 0.70300001 -0.032047424 1.3795179e-38 297 266
-0.027117053 0.70300001 -0.032047424 1.3251366e-38 298 266
-0.025810819 0.70099998 -0.031956252 1.527967e-38 299 266
-0.024546666 0.69999999 -0.031910665 1.6115915e-38 300 266
-0.023252707 0.69800001 -0.031819493 1.7222262e-38 301 266
-0.02202888 0.69800001 -0.031819493 1.5829954e-38 302 266
-0.020805053 0.69800001 -0.031819493 1.0390412e-38 303 266
-0.019581227 0.69800001 -0.031819493 1.3146221e-38 304 266
-0.0183574 0.69800001 -0.031819493 1.8124784e-38 305 266
-0.017133573 0.69800001 -0.031819493 1.7241346e-38 306 266
-0.015886955 0.69700003 -0.03177391 1.7241346e-38 307 266
-0.014643839 0.69599998 -0.031728316 1.5406086e-38 308 266
-0.013423519 0.69599998 -0.031728316 1.4115347e-38 309 266
-0.0122032 0.69599998 -0.031728316 1.2180327e-38 310 266
-0.010982879 0.69599998 -0.031728316 1.1904099e-38 311 266
-0.0097345067 0.69400001 -0.031637147 1.1902664e-38 312 266
-0.0085176928 0.69400001 -0.031637147 1.199486e-38 313 266
-0.0073008798 0.69400001 -0.031637147 1.1719355e-38 314 266
-0.0060840664 0.69400001 -0.031637147 1.1719355e-38 315 266
-0.0048672534 0.69400001 -0.031637147 1.1811548e-38 316 266
-0.0036504399 0.69400001 -0.031637147 1.1903743e-38 317 266
-0.0024336267 0.69400001 -0.031637147 1.1812266e-38 318 266
-0.0012203199 0.69599998 -0.031728316 1.153604e-38 319 266
0 0.69599998 -0.031728316 1.2548387e-38 320 266
0.0012203199 0.69599998 -0.031728316 1.2364356e-38 321 266
0.0024441467 0.69700003 -0.03177391 1.3280171e-38 322 266
0.0036609597 0.69599998 -0.031728316 1.2450771e-38 323 266
0.0048812795 0.69599998 -0.031728316 9.3233221e-39 324 266
0.0061103669 0.69700003 -0.03177391 1.1075039e-38 325 266
0.00733244 0.69700003 -0.03177391 1.2913579e-38 326 266
0.0085545136 0.69700003 -0.03177391 1.1899427e-38 327 266
0.0097906133 0.69800001 -0.031819493 1.1350199e-38 328 266
0.01101444 0.69800001 -0.031819493 1.1442395e-38 329 266
0.012273333 0.69999999 -0.031910665 1.1534941e-38 330 266
0.013558527 0.70300001 -0.032047424 1.1534941e-38 331 266
0.014812159 0.704 -0.032093015 1.2544407e-38 332 266
0.016092092 0.70599997 -0.032184184 1.2636604e-38 333 266
0.017329946 0.70599997 -0.032184184 1.272915e-38 334 266
0.018594101 0.70700002 -0.032229774 1.272915e-38 335 266
0.019833706 0.70700002 -0.032229774 1.3004292e-38 336 266
0.021103119 0.708 -0.03227536 1.3557465e-38 337 266
0.022439159 0.71100003 -0.032412119 1.4293219e-38 338 266
0.02378572 0.71399999 -0.032548878 1.8072881e-38 339 266
0.025107734 0.71600002 -0.032640055 2.1205715e-38 340 266
0.026363119 0.71600002 -0.032640055 2.1943639e-38 341 266
-0.040004052 0.713 -0.033753417 2.2588652e-38 288 267
-0.038753927 0.713 -0.033753417 2.2865238e-38 289 267
-0.037398599 0.71100003 -0.033658739 1.8164703e-38 290 267
-0.036151983 0.71100003 -0.033658739 1.4569433e-38 291 267
-0.034856264 0.70999998 -0.033611398 1.6685982e-38 292 267
-0.033611398 0.70999998 -0.033611398 1.5579636e-38 293 267
-0.03227536 0.708 -0.033516716 1.3264317e-38 294 267
-0.030990168 0.70700002 -0.033469379 1.2434556e-38 295 267
-0.029708479 0.70599997 -0.033422034 1.4170079e-38 296 267
-0.028389972 0.704 -0.03332736 1.1680798e-38 297 267
-0.027117053 0.70300001 -0.033280019 1.351139e-38 298 267
-0.025884461 0.70300001 -0.033280019 1.3234803e-38 299 267
-0.024581732 0.70099998 -0.03318534 1.3514984e-38 300 267
-0.023319334 0.69999999 -0.033137999 1.4713527e-38 301 267
-0.02202888 0.69800001 -0.033043321 1.4340782e-38 302 267
-0.020805053 0.69800001 -0.033043321 1.3050043e-38 303 267
-0.019581227 0.69800001 -0.033043321 1.3147296e-38 304 267
-0.0183574 0.69800001 -0.033043321 1.7941469e-38 305 267
-0.017133573 0.69800001 -0.033043321 1.7333542e-38 306 267
-0.015909746 0.69800001 -0.033043321 1.7149151e-38 307 267
-0.01466488 0.69700003 -0.03299598 1.5222413e-38 308 267
-0.013442807 0.69700003 -0.03299598 1.4116066e-38 309 267
-0.0122032 0.69599998 -0.032948639 1.2732781e-38 310 267
-0.010982879 0.69599998 -0.032948639 1.190302e-38 311 267
-0.0097625591 0.69599998 -0.032948639 1.2086339e-38 312 267
-0.0085422397 0.69599998 -0.032948639 1.2178535e-38 313 267
-0.0073219193 0.69599998 -0.032948639 1.144421e-38 314 267
-0.0061015999 0.69599998 -0.032948639 1.1352014e-38 315 267
-0.0048812795 0.69599998 -0.032948639 1.1901945e-38 316 267
-0.0036609597 0.69599998 -0.032948639 1.2178891e-38 317 267
-0.0024406398 0.69599998 -0.032948639 1.1812622e-38 318 267
-0.0012220733 0.69700003 -0.03299598 1.1812622e-38 319 267
0 0.69700003 -0.03299598 1.1629307e-38 320 267
0.0012220733 0.69700003 -0.03299598 1.1629307e-38 321 267
0.0024441467 0.69700003 -0.03299598 1.2913557e-38 322 267
0.00366622 0.69700003 -0.03299598 1.2821361e-38 323 267
0.0048882933 0.69700003 -0.03299598 1.2451858e-38 324 267
0.0061103669 0.69700003 -0.03299598 1.2083077e-38 325 267
0.0073429602 0.69800001 -0.033043321 1.1532437e-38 326 267
0.0085667865 0.69800001 -0.033043321 1.1440241e-38 327 267
0.0097906133 0.69800001 -0.033043321 1.1534591e-38 328 267
0.011045999 0.69999999 -0.033137999 1.1718983e-38 329 267
0.012273333 0.69999999 -0.033137999 1.1903002e-38 330 267
0.013558527 0.70300001 -0.033280019 1.1903002e-38 331 267
0.014812159 0.704 -0.03332736 1.2178863e-38 332 267
0.016092092 0.70599997 -0.033422034 1.2086667e-38 333 267
0.017354494 0.70700002 -0.033469379 1.2544404e-38 334 267
0.0186204 0.708 -0.033516716 1.2821351e-38 335 267
0.019917866 0.70999998 -0.033611398 1.3648231e-38 336 267
0.021162732 0.70999998 -0.033611398 1.3924819e-38 337 267
0.022439159 0.71100003 -0.033658739 1.392516e-38 338 267
0.02378572 0.71399999 -0.033800758 1.7981407e-38 339 267
0.025037598 0.71399999 -0.033800758 2.1573061e-38 340 267
0.026289478 0.71399999 -0.033800758 2.2494657e-38 341 267
-0.040004052 0.713 -0.035003547 2.2681204e-38 288 268
-0.038753927 0.713 -0.035003547 2.3049626e-38 289 268
-0.037503798 0.713 -0.035003547 1.9179215e-38 290 268
-0.036151983 0.71100003 -0.034905359 1.5675422e-38 291 268
-0.034856264 0.70999998 -0.034856264 1.6872529e-38 292 268
-0.033611398 0.70999998 -0.034856264 1.6687779e-38 293 268
-0.03227536 0.708 -0.034758076 1.391617e-38 294 268
-0.030990168 0.70700002 -0.034708988 1.2625432e-38 295 268
-0.029708479 0.70599997 -0.034659892 1.4644382e-38 296 268
-0.028389972 0.704 -0.034561705 1.362987e-38 297 268
-0.027117053 0.70300001 -0.034512613 1.2243307e-38 298 268
-0.025884461 0.70300001 -0.034512613 1.0860373e-38 299 268
-0.024581732 0.70099998 -0.034414422 1.2409318e-38 300 268
-0.023352645 0.70099998 -0.034414422 1.213309e-38 301 268
-0.022091998 0.69999999 -0.034365334 1.3600304e-38 302 268
-0.020864666 0.69999999 -0.034365334 1.3784696e-38 303 268
-0.019637333 0.69999999 -0.034365334 1.287358e-38 304 268
-0.018409999 0.69999999 -0.034365334 1.7483362e-38 305 268
-0.017133573 0.69800001 -0.034267146 1.7333898e-38 306 268
-0.015909746 0.69800001 -0.034267146 1.7241344e-38 307 268
-0.01468592 0.69800001 -0.034267146 1.5314609e-38 308 268
-0.013462093 0.69800001 -0.034267146 1.4208261e-38 309 268
-0.012220734 0.69700003 -0.034218054 1.2549113e-38 310 268
-0.01099866 0.69700003 -0.034218054 1.1811548e-38 311 268
-0.0097765867 0.69700003 -0.034218054 1.1811553e-38 312 268
-0.0085422397 0.69599998 -0.034168959 1.1718999e-38 313 268
-0.0073219193 0.69599998 -0.034168959 1.1443491e-38 314 268
-0.0061103669 0.69700003 -0.034218054 1.1443491e-38 315 268
-0.0048882933 0.69700003 -0.034218054 1.1719355e-38 316 268
-0.00366622 0.69700003 -0.034218054 1.1719355e-38 317 268
-0.0024441467 0.69700003 -0.034218054 1.1994863e-38 318 268
-0.0012238267 0.69800001 -0.034267146 1.1994863e-38 319 268
0 0.69800001 -0.034267146 1.1903017e-38 320 268
0.0012238267 0.69800001 -0.034267146 1.2272159e-38 321 268
0.0024476533 0.69800001 -0.034267146 1.2916078e-38 322 268
0.00366622 0.69700003 -0.034218054 1.2547654e-38 323 268
0.0048882933 0.69700003 -0.034218054 1.2453302e-38 324 268
0.006119133 0.69800001 -0.034267146 1.1992682e-38 325 268
0.0073429602 0.69800001 -0.034267146 1.1715383e-38 326 268
0.0085667865 0.69800001 -0.034267146 1.1992329e-38 327 268
0.0098186666 0.69999999 -0.034365334 1.1718256e-38 328 268
0.011045999 0.69999999 -0.034365334 1.1718256e-38 329 268
0.012290866 0.70099998 -0.034414422 1.1993401e-38 330 268
0.013577812 0.704 -0.034561705 1.2177794e-38 331 268
0.014812159 0.704 -0.034561705 1.2452936e-38 332 268
0.016092092 0.70599997 -0.034659892 1.2360739e-38 333 268
0.017354494 0.70700002 -0.034708988 1.2821351e-38 334 268
0.0186204 0.708 -0.034758076 1.2913547e-38 335 268
0.019917866 0.70999998 -0.034856264 1.3282327e-38 336 268
0.021192541 0.71100003 -0.034905359 1.3097575e-38 337 268
0.022502279 0.713 -0.035003547 1.309756e-38 338 268
0.02378572 0.71399999 -0.035052639 1.7707341e-38 339 268
0.025037598 0.71399999 -0.035052639 2.1573424e-38 340 268
