# .PCD v.7 - Point Cloud Data file format
FIELDS x y z rgb imX imY
SIZE 4 4 4 4 4 4
TYPE F F F F F F
COUNT 1 1 1 1 1 1
WIDTH 829
HEIGHT 1
VIEWPOINT 0 0 0 1 0 0 0
POINTS 829
DATA ascii
0.017256306 0.70300001 -0.024651866 1.2358928e-38 334 260
0.018488899 0.70300001 -0.024651866 1.2451124e-38 335 260
0.019749546 0.704 -0.024686933 1.2634789e-38 336 260
0.020983893 0.704 -0.024686933 1.4293951e-38 337 260
0.022281358 0.70599997 -0.024757065 1.7241674e-38 338 260
0.023519212 0.70599997 -0.024757065 2.1390478e-38 339 260
-0.038210396 0.70300001 -0.025884461 1.9638035e-38 289 261
-0.036977798 0.70300001 -0.025884461 1.7511061e-38 290 261
-0.035745207 0.70300001 -0.025884461 1.5851181e-38 291 261
-0.034561705 0.704 -0.02592128 1.7592808e-38 292 261
-0.033280019 0.70300001 -0.025884461 1.7592808e-38 293 261
-0.032047424 0.70300001 -0.025884461 1.6479235e-38 294 261
-0.030814834 0.70300001 -0.025884461 1.2422268e-38 295 261
-0.029455997 0.69999999 -0.025773998 1.359673e-38 296 261
-0.028148014 0.69800001 -0.025700359 1.866749e-38 297 261
-0.026885614 0.69700003 -0.025663542 1.4748805e-38 298 261
-0.025663542 0.69700003 -0.025663542 1.7975652e-38 299 261
-0.0244064 0.69599998 -0.025626717 1.559047e-38 300 261
-0.023119451 0.69400001 -0.025553079 1.3839113e-38 301 261
-0.021871079 0.69300002 -0.02551626 1.3010088e-38 302 261
-0.020656019 0.69300002 -0.02551626 1.2549469e-38 303 261
-0.019469013 0.69400001 -0.025553079 1.2547315e-38 304 261
-0.018225901 0.69300002 -0.02551626 1.2178891e-38 305 261
-0.016961746 0.69099998 -0.025442619 1.2177806e-38 306 261
-0.015750192 0.69099998 -0.025442619 1.2823176e-38 307 261
-0.014538639 0.69099998 -0.025442619 1.254874e-38 308 261
-0.013327086 0.69099998 -0.025442619 1.1995566e-38 309 261
-0.012115533 0.69099998 -0.025442619 1.1808301e-38 310 261
-0.010888199 0.69 -0.025405798 1.2085246e-38 311 261
-0.0096783992 0.69 -0.025405798 1.3096875e-38 312 261
-0.008480873 0.69099998 -0.025442619 1.1345159e-38 313 261
-0.0072693196 0.69099998 -0.025442619 9.13824e-39 314 261
-0.0060577663 0.69099998 -0.025442619 9.2307944e-39 315 261
-0.0048391996 0.69 -0.025405798 9.1418554e-39 316 261
-0.0036293997 0.69 -0.025405798 1.1447106e-38 317 261
-0.0024231065 0.69099998 -0.025442619 1.1996295e-38 318 261
-0.0012115532 0.69099998 -0.025442619 1.1534958e-38 319 261
0 0.69099998 -0.025442619 1.1808654e-38 320 261
0.0012115532 0.69099998 -0.025442619 1.125548e-38 321 261
0.0024231065 0.69099998 -0.025442619 1.1164013e-38 322 261
0.0036451798 0.69300002 -0.02551626 1.1717187e-38 323 261
0.00486024 0.69300002 -0.02551626 1.2087765e-38 324 261
0.0060840664 0.69400001 -0.025553079 1.2272156e-38 325 261
0.0073008798 0.69400001 -0.025553079 1.2638052e-38 326 261
0.0085176928 0.69400001 -0.025553079 1.1900487e-38 327 261
0.0097625591 0.69599998 -0.025626717 1.2083077e-38 328 261
0.01099866 0.69700003 -0.025663542 1.1529903e-38 329 261
0.012220734 0.69700003 -0.025663542 1.0520069e-38 330 261
0.013462093 0.69800001 -0.025700359 1.0427514e-38 331 261
0.014727999 0.69999999 -0.025773998 1.1438783e-38 332 261
0.015978126 0.70099998 -0.025810819 1.1623174e-38 333 261
0.017256306 0.70300001 -0.025884461 1.2081628e-38 334 261
0.018515198 0.704 -0.02592128 1.2634802e-38 335 261
0.019805651 0.70599997 -0.025994917 1.3463115e-38 336 261
0.021043506 0.70599997 -0.025994917 1.4569823e-38 337 261
0.022407599 0.70999998 -0.026142199 1.6782496e-38 338 261
0.023652466 0.70999998 -0.026142199 2.0839462e-38 339 261
-0.038264744 0.704 -0.027155625 1.9822066e-38 289 262
-0.037030395 0.704 -0.027155625 1.6311439e-38 290 262
-0.035796054 0.704 -0.027155625 1.3729962e-38 291 262
-0.034561705 0.704 -0.027155625 1.7132202e-38 292 262
-0.03332736 0.704 -0.027155625 1.8699168e-38 293 262
-0.032047424 0.70300001 -0.027117053 1.7775398e-38 294 262
-0.030814834 0.70300001 -0.027117053 1.2704637e-38 295 262
-0.029582238 0.70300001 -0.027117053 1.3320519e-38 296 262
-0.028228667 0.69999999 -0.027001332 1.8483474e-38 297 262
-0.026924185 0.69800001 -0.026924185 1.493212e-38 298 262
-0.025663542 0.69700003 -0.026885614 1.8251163e-38 299 262
-0.0244064 0.69599998 -0.026847038 1.5774501e-38 300 262
-0.023119451 0.69400001 -0.026769891 1.4022425e-38 301 262
-0.021902639 0.69400001 -0.026769891 1.2182125e-38 302 262
-0.020685827 0.69400001 -0.026769891 1.0522964e-38 303 262
-0.019469013 0.69400001 -0.026769891 1.1166178e-38 304 262
-0.018225901 0.69300002 -0.02673132 1.1627156e-38 305 262
-0.01701084 0.69300002 -0.02673132 1.1718986e-38 306 262
-0.015750192 0.69099998 -0.026654173 1.2087409e-38 307 262
-0.014538639 0.69099998 -0.026654173 1.1628942e-38 308 262
-0.013327086 0.69099998 -0.026654173 1.1628942e-38 309 262
-0.012115533 0.69099998 -0.026654173 1.2640217e-38 310 262
-0.01090398 0.69099998 -0.026654173 1.3285586e-38 311 262
-0.0096924258 0.69099998 -0.026654173 1.3928788e-38 312 262
-0.008480873 0.69099998 -0.026654173 1.2084875e-38 313 262
-0.0072693196 0.69099998 -0.026654173 1.1527751e-38 314 262
-0.0060577663 0.69099998 -0.026654173 1.2080925e-38 315 262
-0.0048462129 0.69099998 -0.026654173 1.1346253e-38 316 262
-0.0036346598 0.69099998 -0.026654173 1.1438808e-38 317 262
-0.0024231065 0.69099998 -0.026654173 1.1349127e-38 318 262
-0.0012115532 0.69099998 -0.026654173 1.171755e-38 319 262
0 0.69099998 -0.026654173 1.2914281e-38 320 262
0.00121506 0.69300002 -0.02673132 1.2637696e-38 321 262
0.00243012 0.69300002 -0.02673132 1.2360389e-38 322 262
0.0036451798 0.69300002 -0.02673132 1.2636617e-38 323 262
0.0048672534 0.69400001 -0.026769891 1.1076131e-38 324 262
0.0060840664 0.69400001 -0.026769891 1.1168685e-38 325 262
0.0073008798 0.69400001 -0.026769891 1.2084878e-38 326 262
0.0085422397 0.69599998 -0.026847038 1.1070367e-38 327 262
0.0097625591 0.69599998 -0.026847038 1.1898682e-38 328 262
0.01099866 0.69700003 -0.026885614 1.1530259e-38 329 262
0.012238266 0.69800001 -0.026924185 1.0427514e-38 330 262
0.013462093 0.69800001 -0.026924185 1.0335319e-38 331 262
0.014727999 0.69999999 -0.027001332 1.1255112e-38 332 262
0.015978126 0.70099998 -0.027039904 1.171609e-38 333 262
0.017256306 0.70300001 -0.027117053 1.1713922e-38 334 262
0.018515198 0.704 -0.027155625 1.2359291e-38 335 262
0.019805651 0.70599997 -0.027232772 1.4201036e-38 336 262
0.021043506 0.70599997 -0.027232772 1.4846406e-38 337 262
0.022407599 0.70999998 -0.027387066 1.668958e-38 338 262
0.023652466 0.70999998 -0.027387066 2.0838024e-38 339 262
-0.038264744 0.704 -0.028389972 2.019049e-38 289 263
-0.037030395 0.704 -0.028389972 1.6494751e-38 290 263
-0.035796054 0.704 -0.028389972 1.2899482e-38 291 263
-0.034561705 0.704 -0.028389972 1.5376538e-38 292 263
-0.03332736 0.704 -0.028389972 1.8142408e-38 293 263
-0.032093015 0.704 -0.028389972 1.7869767e-38 294 263
-0.030814834 0.70300001 -0.028349647 1.3167431e-38 295 263
-0.029582238 0.70300001 -0.028349647 1.3598195e-38 296 263
-0.028228667 0.69999999 -0.028228667 1.8207976e-38 297 263
-0.026924185 0.69800001 -0.028148014 1.493212e-38 298 263
-0.025663542 0.69700003 -0.028107686 1.8251163e-38 299 263
-0.024441468 0.69700003 -0.028107686 1.5682665e-38 300 263
-0.023186078 0.69599998 -0.028067358 1.41157e-38 301 263
-0.021902639 0.69400001 -0.027986705 1.3377429e-38 302 263
-0.020685827 0.69400001 -0.027986705 1.1994494e-38 303 263
-0.019469013 0.69400001 -0.027986705 1.2179241e-38 304 263
-0.0182522 0.69400001 -0.027986705 1.2455468e-38 305 263
-0.01701084 0.69300002 -0.027946379 1.2455105e-38 306 263
-0.015795778 0.69300002 -0.027946379 1.2731333e-38 307 263
-0.014580719 0.69300002 -0.027946379 1.2365072e-38 308 263
-0.01336566 0.69300002 -0.027946379 1.2272876e-38 309 263
-0.012150601 0.69300002 -0.027946379 1.2364709e-38 310 263
-0.01090398 0.69099998 -0.027865725 1.1995566e-38 311 263
-0.0096924258 0.69099998 -0.027865725 1.2730966e-38 312 263
-0.0085054198 0.69300002 -0.027946379 1.1901205e-38 313 263
-0.0072903596 0.69300002 -0.027946379 1.0977454e-38 314 263
-0.0060753003 0.69300002 -0.027946379 1.1530628e-38 315 263
-0.00486024 0.69300002 -0.027946379 1.1346962e-38 316 263
-0.0036451798 0.69300002 -0.027946379 1.1439158e-38 317 263
-0.00243012 0.69300002 -0.027946379 1.1441673e-38 318 263
-0.00121506 0.69300002 -0.027946379 1.1902652e-38 319 263
0 0.69300002 -0.027946379 1.2088115e-38 320 263
0.00121506 0.69300002 -0.027946379 1.2272506e-38 321 263
0.00243012 0.69300002 -0.027946379 1.2362904e-38 322 263
0.0036504399 0.69400001 -0.027986705 1.1902284e-38 323 263
0.0048672534 0.69400001 -0.027986705 1.0523317e-38 324 263
0.0060840664 0.69400001 -0.027986705 1.0983935e-38 325 263
0.0073219193 0.69599998 -0.028067358 1.1625342e-38 326 263
0.0085422397 0.69599998 -0.028067358 1.1164363e-38 327 263
0.0097765867 0.69700003 -0.028107686 1.1991235e-38 328 263
0.01099866 0.69700003 -0.028107686 1.1806483e-38 329 263
0.012238266 0.69800001 -0.028148014 1.1806486e-38 330 263
0.013500666 0.69999999 -0.028228667 1.2083433e-38 331 263
0.014749039 0.70099998 -0.028268991 1.245149e-38 332 263
0.016023712 0.70300001 -0.028349647 1.245149e-38 333 263
0.017280852 0.704 -0.028389972 1.1991588e-38 334 263
0.018515198 0.704 -0.028389972 1.2083783e-38 335 263
0.019805651 0.70599997 -0.028470624 1.3190124e-38 336 263
0.021043506 0.70599997 -0.028470624 1.4019886e-38 337 263
0.022312919 0.70700002 -0.028510952 1.7056563e-38 338 263
0.023552528 0.70700002 -0.028510952 2.1297563e-38 339 263
-0.037135597 0.70599997 -0.029708479 1.6864963e-38 290 264
-0.035897743 0.70599997 -0.029708479 1.2439573e-38 291 264
-0.034659892 0.70599997 -0.029708479 1.3619776e-38 292 264
-0.03332736 0.704 -0.029624319 1.5924668e-38 293 264
-0.032093015 0.704 -0.029624319 1.6669426e-38 294 264
-0.030814834 0.70300001 -0.029582238 1.3442579e-38 295 264
-0.029582238 0.70300001 -0.029582238 1.3968056e-38 296 264
-0.028268991 0.70099998 -0.029498078 1.8024664e-38 297 264
-0.026924185 0.69800001 -0.029371841 1.5115432e-38 298 264
-0.025700359 0.69800001 -0.029371841 1.8526672e-38 299 264
-0.024441468 0.69700003 -0.02932976 1.5774865e-38 300 264
-0.023186078 0.69599998 -0.029287677 1.4391929e-38 301 264
-0.021965759 0.69599998 -0.029287677 1.3287034e-38 302 264
-0.020745439 0.69599998 -0.029287677 1.2272523e-38 303 264
-0.019525118 0.69599998 -0.029287677 1.2915008e-38 304 264
-0.0182522 0.69400001 -0.029203519 1.3007204e-38 305 264
-0.017035386 0.69400001 -0.029203519 1.2731333e-38 306 264
-0.015795778 0.69300002 -0.029161438 1.2915725e-38 307 264
-0.014580719 0.69300002 -0.029161438 1.2459424e-38 308 264
-0.01336566 0.69300002 -0.029161438 1.2643456e-38 309 264
-0.012150601 0.69300002 -0.029161438 1.2917878e-38 310 264
-0.010935539 0.69300002 -0.029161438 1.1627139e-38 311 264
-0.0097204801 0.69300002 -0.029161438 1.1257635e-38 312 264
-0.0085054198 0.69300002 -0.029161438 1.1442027e-38 313 264
-0.0072903596 0.69300002 -0.029161438 1.1715739e-38 314 264
-0.0060753003 0.69300002 -0.029161438 1.1715739e-38 315 264
-0.00486024 0.69300002 -0.029161438 1.1533143e-38 316 264
-0.0036451798 0.69300002 -0.029161438 1.1717534e-38 317 264
-0.00243012 0.69300002 -0.029161438 1.1901929e-38 318 264
-0.00121506 0.69300002 -0.029161438 1.2178515e-38 319 264
0 0.69300002 -0.029161438 1.2270355e-38 320 264
0.0012168133 0.69400001 -0.029203519 1.2178159e-38 321 264
0.0024336267 0.69400001 -0.029203519 1.2636254e-38 322 264
0.0036504399 0.69400001 -0.029203519 1.2451502e-38 323 264
0.0048672534 0.69400001 -0.029203519 1.1809733e-38 324 264
0.0060840664 0.69400001 -0.029203519 1.1901929e-38 325 264
0.0073219193 0.69599998 -0.029287677 1.1258354e-38 326 264
0.0085422397 0.69599998 -0.029287677 1.1074323e-38 327 264
0.0097765867 0.69700003 -0.02932976 1.1715367e-38 328 264
0.01101444 0.69800001 -0.029371841 1.1807922e-38 329 264
0.012238266 0.69800001 -0.029371841 1.2359291e-38 330 264
0.013500666 0.69999999 -0.029455997 1.2543683e-38 331 264
0.014791119 0.70300001 -0.029582238 1.2636234e-38 332 264
0.016046507 0.704 -0.029624319 1.2544038e-38 333 264
0.017280852 0.704 -0.029624319 1.2268894e-38 334 264
0.018567799 0.70599997 -0.029708479 1.2176698e-38 335 264
0.019833706 0.70700002 -0.029750559 1.2636587e-38 336 264
0.021073313 0.70700002 -0.029750559 1.383513e-38 337 264
0.022312919 0.70700002 -0.029750559 1.7058357e-38 338 264
0.023552528 0.70700002 -0.029750559 2.1115323e-38 339 264
-0.037188202 0.70700002 -0.030990168 1.7418132e-38 290 265
-0.035948593 0.70700002 -0.030990168 1.3546274e-38 291 265
-0.034659892 0.70599997 -0.030946331 1.39925e-38 292 265
-0.03332736 0.704 -0.030858666 1.3900305e-38 293 265
-0.032093015 0.704 -0.030858666 1.4536319e-38 294 265
-0.030814834 0.70300001 -0.030814834 1.3706919e-38 295 265
-0.029582238 0.70300001 -0.030814834 1.4153519e-38 296 265
-0.028349647 0.70300001 -0.030814834 1.8025736e-38 297 265
-0.027001332 0.69999999 -0.030683333 1.4931401e-38 298 265
-0.025700359 0.69800001 -0.030595668 1.8618868e-38 299 265
-0.024476532 0.69800001 -0.030595668 1.5867417e-38 300 265
-0.023219392 0.69700003 -0.030551834 1.41157e-38 301 265
-0.021965759 0.69599998 -0.030507999 1.2551984e-38 302 265
-0.020745439 0.69599998 -0.030507999 1.1076854e-38 303 265
-0.019553173 0.69700003 -0.030551834 1.291249e-38 304 265
-0.018304799 0.69599998 -0.030507999 1.3188717e-38 305 265
-0.017084479 0.69599998 -0.030507999 1.2913206e-38 306 265
-0.015818574 0.69400001 -0.030420333 1.3281989e-38 307 265
-0.01460176 0.69400001 -0.030420333 1.2918245e-38 308 265
-0.013384946 0.69400001 -0.030420333 1.2826048e-38 309 265
-0.012168133 0.69400001 -0.030420333 1.3010078e-38 310 265
-0.01095132 0.69400001 -0.030420333 1.2272512e-38 311 265
-0.0097204801 0.69300002 -0.0303765 1.1901934e-38 312 265
-0.0085054198 0.69300002 -0.0303765 1.1532793e-38 313 265
-0.0072903596 0.69300002 -0.0303765 1.1257645e-38 314 265
-0.0060840664 0.69400001 -0.030420333 1.1257645e-38 315 265
-0.00486024 0.69300002 -0.0303765 1.162427e-38 316 265
-0.0036451798 0.69300002 -0.0303765 1.1900496e-38 317 265
-0.00243012 0.69300002 -0.0303765 1.2087046e-38 318 265
-0.00121506 0.69300002 -0.0303765 1.2087046e-38 319 265
0 0.69400001 -0.030420333 1.2455105e-38 320 265
0.0012168133 0.69400001 -0.030420333 1.2270355e-38 321 265
0.0024336267 0.69400001 -0.030420333 1.2636973e-38 322 265
0.0036609597 0.69599998 -0.030507999 1.2729168e-38 323 265
0.0048812795 0.69599998 -0.030507999 1.2177797e-38 324 265
0.0061015999 0.69599998 -0.030507999 1.1993045e-38 325 265
0.00733244 0.69700003 -0.030551834 1.1350194e-38 326 265
0.0085545136 0.69700003 -0.030551834 1.098177e-38 327 265
0.0097765867 0.69700003 -0.030551834 1.1715369e-38 328 265
0.01101444 0.69800001 -0.030595668 1.1991598e-38 329 265
0.012238266 0.69800001 -0.030595668 1.2176342e-38 330 265
0.013500666 0.69999999 -0.030683333 1.2176342e-38 331 265
0.014812159 0.704 -0.030858666 1.2634799e-38 332 265
0.016092092 0.70599997 -0.030946331 1.2819549e-38 333 265
0.017329946 0.70599997 -0.030946331 1.2452206e-38 334 265
0.018567799 0.70599997 -0.030946331 1.2544401e-38 335 265
0.019833706 0.70700002 -0.030990168 1.245184e-38 336 265
0.021073313 0.70700002 -0.030990168 1.392697e-38 337 265
0.022344479 0.708 -0.031034 1.7242753e-38 338 265
0.023585839 0.708 -0.031034 2.1022774e-38 339 265
-0.0372408 0.708 -0.03227536 1.8160015e-38 290 266
-0.03599944 0.708 -0.03227536 1.5210115e-38 291 266
-0.034659892 0.70599997 -0.032184184 1.5112139e-38 292 266
-0.03332736 0.704 -0.032093015 1.1608345e-38 293 266
-0.032093015 0.704 -0.032093015 1.2783846e-38 294 266
-0.030858666 0.704 -0.032093015 1.2046279e-38 295 266
-0.029624319 0.704 -0.032093015 1.3694317e-38 296 266
-0.028349647 0.70300001 -0.032047424 1.8027511e-38 297 266
-0.027039904 0.70099998 -0.031956252 1.4931401e-38 298 266
-0.025773998 0.69999999 -0.031910665 1.8618868e-38 299 266
-0.024476532 0.69800001 -0.031819493 1.5867414e-38 300 266
-0.023219392 0.69700003 -0.03177391 1.4392283e-38 301 266
-0.02199732 0.69700003 -0.03177391 1.2735284e-38 302 266
-0.020775247 0.69700003 -0.03177391 1.1075402e-38 303 266
-0.019553173 0.69700003 -0.03177391 1.2544054e-38 304 266
-0.018331099 0.69700003 -0.03177391 1.2912838e-38 305 266
-0.017084479 0.69599998 -0.031728316 1.2820292e-38 306 266
-0.015864158 0.69599998 -0.031728316 1.328127e-38 307 266
-0.014643839 0.69599998 -0.031728316 1.2640219e-38 308 266
-0.013384946 0.69400001 -0.031637147 1.2824611e-38 309 266
-0.012168133 0.69400001 -0.031637147 1.2641664e-38 310 266
-0.01095132 0.69400001 -0.031637147 1.2364719e-38 311 266
-0.0097345067 0.69400001 -0.031637147 1.328092e-38 312 266
-0.0085176928 0.69400001 -0.031637147 1.2542996e-38 313 266
-0.0073008798 0.69400001 -0.031637147 1.1717187e-38 314 266
-0.0060840664 0.69400001 -0.031637147 1.1440241e-38 315 266
-0.0048672534 0.69400001 -0.031637147 1.0705559e-38 316 266
-0.0036504399 0.69400001 -0.031637147 1.1534961e-38 317 266
-0.0024336267 0.69400001 -0.031637147 1.2180682e-38 318 266
-0.0012168133 0.69400001 -0.031637147 1.2180682e-38 319 266
0 0.69599998 -0.031728316 1.1904449e-38 320 266
0.0012203199 0.69599998 -0.031728316 1.1812254e-38 321 266
0.0024406398 0.69599998 -0.031728316 1.2269992e-38 322 266
0.0036609597 0.69599998 -0.031728316 1.2362188e-38 323 266
0.0048812795 0.69599998 -0.031728316 1.281921e-38 324 266
0.0061015999 0.69599998 -0.031728316 1.281921e-38 325 266
0.00733244 0.69700003 -0.03177391 1.2362188e-38 326 266
0.0085545136 0.69700003 -0.03177391 1.190085e-38 327 266
0.0097906133 0.69800001 -0.031819493 1.0796654e-38 328 266
0.01101444 0.69800001 -0.031819493 1.1349828e-38 329 266
0.012273333 0.69999999 -0.031910665 1.2084152e-38 330 266
0.013519952 0.70099998 -0.031956252 1.2176348e-38 331 266
0.014812159 0.704 -0.032093015 1.2451853e-38 332 266
0.016092092 0.70599997 -0.032184184 1.2451853e-38 333 266
0.017329946 0.70599997 -0.032184184 1.2636957e-38 334 266
0.018594101 0.70700002 -0.032229774 1.2636957e-38 335 266
0.01986176 0.708 -0.03227536 1.3096493e-38 336 266
0.021103119 0.708 -0.03227536 1.4571263e-38 337 266
0.022344479 0.708 -0.03227536 1.7242403e-38 338 266
0.023585839 0.708 -0.03227536 2.1022424e-38 339 266
-0.035897743 0.70599997 -0.033422034 1.733387e-38 291 267
-0.034659892 0.70599997 -0.033422034 1.6689226e-38 292 267
-0.033422034 0.70599997 -0.033422034 1.493751e-38 293 267
-0.032184184 0.70599997 -0.033422034 1.4924524e-38 294 267
-0.030858666 0.704 -0.03332736 1.0591329e-38 295 267
-0.029624319 0.704 -0.03332736 1.2402133e-38 296 267
-0.028349647 0.70300001 -0.033280019 1.7288502e-38 297 267
-0.027039904 0.70099998 -0.03318534 1.4839553e-38 298 267
-0.025773998 0.69999999 -0.033137999 1.8619574e-38 299 267
-0.024546666 0.69999999 -0.033137999 1.595961e-38 300 267
-0.023252707 0.69800001 -0.033043321 1.4576675e-38 301 267
-0.02199732 0.69700003 -0.03299598 1.3745841e-38 302 267
-0.020775247 0.69700003 -0.03299598 1.2455102e-38 303 267
-0.019581227 0.69800001 -0.033043321 1.2730966e-38 304 267
-0.018331099 0.69700003 -0.03299598 1.2823163e-38 305 267
-0.017109027 0.69700003 -0.03299598 1.2731333e-38 306 267
-0.015886955 0.69700003 -0.03299598 1.2455105e-38 307 267
-0.014643839 0.69599998 -0.032948639 1.2545871e-38 308 267
-0.013423519 0.69599998 -0.032948639 1.3006851e-38 309 267
-0.012168133 0.69400001 -0.032853961 1.2549469e-38 310 267
-0.01095132 0.69400001 -0.032853961 1.1904099e-38 311 267
-0.0097345067 0.69400001 -0.032853961 1.3463509e-38 312 267
-0.0085176928 0.69400001 -0.032853961 1.3095087e-38 313 267
-0.0073008798 0.69400001 -0.032853961 1.2819942e-38 314 267
-0.0060840664 0.69400001 -0.032853961 1.2266768e-38 315 267
-0.0048672534 0.69400001 -0.032853961 1.0615525e-38 316 267
-0.0036504399 0.69400001 -0.032853961 1.1168699e-38 317 267
-0.0024336267 0.69400001 -0.032853961 1.2364721e-38 318 267
-0.0012203199 0.69599998 -0.032948639 1.1996298e-38 319 267
0 0.69700003 -0.03299598 1.1904096e-38 320 267
0.0012220733 0.69700003 -0.03299598 1.1627509e-38 321 267
0.0024441467 0.69700003 -0.03299598 1.2270361e-38 322 267
0.0036609597 0.69599998 -0.032948639 1.2177806e-38 323 267
0.0048812795 0.69599998 -0.032948639 1.2728096e-38 324 267
0.0061103669 0.69700003 -0.03299598 1.2820292e-38 325 267
0.0073429602 0.69800001 -0.033043321 1.3280903e-38 326 267
0.0085667865 0.69800001 -0.033043321 1.2911762e-38 327 267
0.0097906133 0.69800001 -0.033043321 1.1809733e-38 328 267
0.011045999 0.69999999 -0.033137999 1.1809733e-38 329 267
0.012273333 0.69999999 -0.033137999 1.1992682e-38 330 267
0.013558527 0.70300001 -0.033280019 1.1992682e-38 331 267
0.014812159 0.704 -0.03332736 1.2451855e-38 332 267
0.016092092 0.70599997 -0.033422034 1.2451855e-38 333 267
0.017354494 0.70700002 -0.033469379 1.2636237e-38 334 267
0.0186204 0.708 -0.033516716 1.3465639e-38 335 267
0.019917866 0.70999998 -0.033611398 1.4109566e-38 336 267
0.021162732 0.70999998 -0.033611398 1.466274e-38 337 267
0.022407599 0.70999998 -0.033611398 1.7058728e-38 338 267
0.023652466 0.70999998 -0.033611398 2.0654359e-38 339 267
-0.034708988 0.70700002 -0.034708988 1.5953126e-38 292 268
-0.033469379 0.70700002 -0.034708988 1.5768735e-38 293 268
-0.032184184 0.70599997 -0.034659892 1.6960403e-38 294 268
-0.030858666 0.704 -0.034561705 1.4010143e-38 295 268
-0.029624319 0.704 -0.034561705 1.2148931e-38 296 268
-0.028349647 0.70300001 -0.034512613 1.3715897e-38 297 268
-0.027117053 0.70300001 -0.034512613 1.4379294e-38 298 268
-0.025810819 0.70099998 -0.034414422 1.8436262e-38 299 268
-0.024546666 0.69999999 -0.034365334 1.6235476e-38 300 268
-0.023252707 0.69800001 -0.034267146 1.4483759e-38 301 268
-0.02202888 0.69800001 -0.034267146 1.3653292e-38 302 268
-0.020805053 0.69800001 -0.034267146 1.2547304e-38 303 268
-0.019581227 0.69800001 -0.034267146 1.2640214e-38 304 268
-0.0183574 0.69800001 -0.034267146 1.2824964e-38 305 268
-0.017109027 0.69700003 -0.034218054 1.291608e-38 306 268
-0.015886955 0.69700003 -0.034218054 1.2823885e-38 307 268
-0.01466488 0.69700003 -0.034218054 1.2547671e-38 308 268
-0.013442807 0.69700003 -0.034218054 1.2547671e-38 309 268
-0.0122032 0.69599998 -0.034168959 1.2364005e-38 310 268
-0.010982879 0.69599998 -0.034168959 1.2548036e-38 311 268
-0.0097625591 0.69599998 -0.034168959 1.3100124e-38 312 268
-0.0085422397 0.69599998 -0.034168959 1.319232e-38 313 268
-0.0073219193 0.69599998 -0.034168959 1.3558593e-38 314 268
-0.0061015999 0.69599998 -0.034168959 1.2267854e-38 315 268
-0.0048882933 0.69700003 -0.034218054 1.0801361e-38 316 268
-0.00366622 0.69700003 -0.034218054 1.0801361e-38 317 268
-0.0024441467 0.69700003 -0.034218054 1.1168702e-38 318 268
-0.0012220733 0.69700003 -0.034218054 1.1168702e-38 319 268
0 0.69800001 -0.034267146 1.1628232e-38 320 268
0.0012238267 0.69800001 -0.034267146 1.1628232e-38 321 268
0.0024441467 0.69700003 -0.034218054 1.2087043e-38 322 268
0.00366622 0.69700003 -0.034218054 1.2179238e-38 323 268
0.0048882933 0.69700003 -0.034218054 1.2637696e-38 324 268
0.006119133 0.69800001 -0.034267146 1.2637696e-38 325 268
0.0073429602 0.69800001 -0.034267146 1.2729165e-38 326 268
0.0085667865 0.69800001 -0.034267146 1.2821361e-38 327 268
0.0098186666 0.69999999 -0.034365334 1.2452939e-38 328 268
0.011045999 0.69999999 -0.034365334 1.2360742e-38 329 268
0.012325933 0.70300001 -0.034512613 1.2268187e-38 330 268
0.013577812 0.704 -0.034561705 1.2360742e-38 331 268
0.014854239 0.70599997 -0.034659892 1.2544407e-38 332 268
0.016114887 0.70700002 -0.034708988 1.27288e-38 333 268
0.017354494 0.70700002 -0.034708988 1.3557834e-38 334 268
0.0186204 0.708 -0.034758076 1.365003e-38 335 268
0.019917866 0.70999998 -0.034856264 1.3557832e-38 336 268
0.021162732 0.70999998 -0.034856264 1.4295397e-38 337 268
0.022439159 0.71100003 -0.034905359 1.6967608e-38 338 268
0.023685781 0.71100003 -0.034905359 2.0747629e-38 339 268
-0.034708988 0.70700002 -0.035948593 1.4940047e-38 292 269
-0.033469379 0.70700002 -0.035948593 1.5308828e-38 293 269
-0.032184184 0.70599997 -0.035897743 1.8255849e-38 294 269
-0.030946331 0.70599997 -0.035897743 1.7610479e-38 295 269
-0.029708479 0.70599997 -0.035897743 1.5580358e-38 296 269
-0.028389972 0.704 -0.035796054 1.3552054e-38 297 269
-0.027117053 0.70300001 -0.035745207 1.3646062e-38 298 269
-0.025884461 0.70300001 -0.035745207 1.7334246e-38 299 269
-0.024546666 0.69999999 -0.035592664 1.623512e-38 300 269
-0.023252707 0.69800001 -0.035490975 1.475999e-38 301 269
-0.02202888 0.69800001 -0.035490975 1.3378147e-38 302 269
-0.020805053 0.69800001 -0.035490975 1.2272159e-38 303 269
-0.019581227 0.69800001 -0.035490975 1.2549469e-38 304 269
-0.0183574 0.69800001 -0.035490975 1.2825695e-38 305 269
-0.017133573 0.69800001 -0.035490975 1.2824976e-38 306 269
-0.015886955 0.69700003 -0.035440128 1.2732781e-38 307 269
-0.01466488 0.69700003 -0.035440128 1.2364721e-38 308 269
-0.013442807 0.69700003 -0.035440128 1.2272526e-38 309 269
-0.012220734 0.69700003 -0.035440128 1.2456564e-38 310 269
-0.010982879 0.69599998 -0.035389278 1.2549118e-38 311 269
-0.0097625591 0.69599998 -0.035389278 1.2364724e-38 312 269
-0.0085422397 0.69599998 -0.035389278 1.2641311e-38 313 269
-0.0073219193 0.69599998 -0.035389278 1.3099771e-38 314 269
-0.0061103669 0.69700003 -0.035440128 1.1809032e-38 315 269
-0.0048953067 0.69800001 -0.035490975 1.0799919e-38 316 269
-0.00366622 0.69700003 -0.035440128 1.098395e-38 317 269
-0.0024441467 0.69700003 -0.035440128 1.11669e-38 318 269
-0.0012238267 0.69800001 -0.035490975 1.1443488e-38 319 269
0 0.69800001 -0.035490975 1.1811548e-38 320 269
0.0012238267 0.69800001 -0.035490975 1.1996298e-38 321 269
0.0024476533 0.69800001 -0.035490975 1.2179241e-38 322 269
0.0036714801 0.69800001 -0.035490975 1.2179241e-38 323 269
0.0048953067 0.69800001 -0.035490975 1.2362907e-38 324 269
0.0061366665 0.69999999 -0.035592664 1.2455102e-38 325 269
0.0073639993 0.69999999 -0.035592664 1.2546575e-38 326 269
0.0085913334 0.69999999 -0.035592664 1.2362185e-38 327 269
0.0098186666 0.69999999 -0.035592664 1.2452583e-38 328 269
0.011061779 0.70099998 -0.035643511 1.2360386e-38 329 269
0.012325933 0.70300001 -0.035745207 1.2636248e-38 330 269
0.013616386 0.70599997 -0.035897743 1.2728803e-38 331 269
0.014854239 0.70599997 -0.035897743 1.2914266e-38 332 269
0.016114887 0.70700002 -0.035948593 1.3374885e-38 333 269
0.017379038 0.708 -0.03599944 1.401809e-38 334 269
0.018672999 0.70999998 -0.036101133 1.3464916e-38 335 269
0.019917866 0.70999998 -0.036101133 1.2912815e-38 336 269
0.021192541 0.71100003 -0.036151983 1.365038e-38 337 269
0.022439159 0.71100003 -0.036151983 1.7151277e-38 338 269
0.023852346 0.71600002 -0.036406212 2.1023493e-38 339 269
0.025107734 0.71600002 -0.036406212 2.2034035e-38 340 269
-0.037661601 0.71600002 -0.037661601 1.8257984e-38 290 270
-0.036253672 0.713 -0.037503798 1.6137126e-38 291 270
-0.034708988 0.70700002 -0.037188202 1.5583968e-38 292 270
-0.033469379 0.70700002 -0.037188202 1.5676522e-38 293 270
-0.032229774 0.70700002 -0.037188202 1.5403189e-38 294 270
-0.030946331 0.70599997 -0.037135597 1.6417701e-38 295 270
-0.029708479 0.70599997 -0.037135597 1.6600646e-38 296 270
-0.028389972 0.704 -0.037030395 1.549394e-38 297 270
-0.027117053 0.70300001 -0.036977798 1.4574863e-38 298 270
-0.025884461 0.70300001 -0.036977798 1.6418417e-38 299 270
-0.024581732 0.70099998 -0.036872596 1.5959615e-38 300 270
-0.023252707 0.69800001 -0.0367148 1.4668876e-38 301 270
-0.02202888 0.69800001 -0.0367148 1.291969e-38 302 270
-0.020805053 0.69800001 -0.0367148 1.1721506e-38 303 270
-0.019637333 0.69999999 -0.036819998 1.2366519e-38 304 270
-0.018409999 0.69999999 -0.036819998 1.2366519e-38 305 270
-0.017133573 0.69800001 -0.0367148 1.2456917e-38 306 270
-0.015909746 0.69800001 -0.0367148 1.2364721e-38 307 270
-0.01468592 0.69800001 -0.0367148 1.218033e-38 308 270
-0.013462093 0.69800001 -0.0367148 1.2272526e-38 309 270
-0.012220734 0.69700003 -0.036662199 1.2917176e-38 310 270
-0.01099866 0.69700003 -0.036662199 1.2917176e-38 311 270
-0.0097765867 0.69700003 -0.036662199 1.2640229e-38 312 270
-0.0085545136 0.69700003 -0.036662199 1.2732784e-38 313 270
-0.00733244 0.69700003 -0.036662199 1.2915374e-38 314 270
-0.006119133 0.69800001 -0.0367148 1.2546952e-38 315 270
-0.0048953067 0.69800001 -0.0367148 1.2547671e-38 316 270
-0.0036714801 0.69800001 -0.0367148 1.2178888e-38 317 270
-0.0024476533 0.69800001 -0.0367148 1.2086695e-38 318 270
-0.0012238267 0.69800001 -0.0367148 1.2362922e-38 319 270
0 0.69800001 -0.0367148 1.1722226e-38 320 270
0.0012238267 0.69800001 -0.0367148 1.1445639e-38 321 270
0.0024476533 0.69800001 -0.0367148 1.1718989e-38 322 270
0.0036714801 0.69800001 -0.0367148 1.190302e-38 323 270
0.0048953067 0.69800001 -0.0367148 1.2177806e-38 324 270
0.0061366665 0.69999999 -0.036819998 1.2270361e-38 325 270
0.0073639993 0.69999999 -0.036819998 1.2362907e-38 326 270
0.0085913334 0.69999999 -0.036819998 1.2270711e-38 327 270
0.0098326923 0.70099998 -0.036872596 1.2821361e-38 328 270
0.01109334 0.70300001 -0.036977798 1.2913557e-38 329 270
0.012343466 0.704 -0.037030395 1.3006826e-38 330 270
0.013616386 0.70599997 -0.037135597 1.3006826e-38 331 270
0.01487528 0.70700002 -0.037188202 1.3099377e-38 332 270
0.01613768 0.708 -0.0372408 1.3007182e-38 333 270
0.017428132 0.70999998 -0.037345998 1.3096859e-38 334 270
0.018672999 0.70999998 -0.037345998 1.3004664e-38 335 270
0.01994592 0.71100003 -0.037398599 1.2544036e-38 336 270
0.021252153 0.713 -0.037503798 1.3465991e-38 337 270
0.022533838 0.71399999 -0.037556399 1.6874691e-38 338 270
0.023852346 0.71600002 -0.037661601 2.1115689e-38 339 270
0.025107734 0.71600002 -0.037661601 2.2218428e-38 340 270
-0.039080046 0.71899998 -0.039080046 2.102025e-38 289 271
-0.037661601 0.71600002 -0.038916986 1.825835e-38 290 271
-0.036253672 0.713 -0.038753927 1.6690666e-38 291 271
-0.034905359 0.71100003 -0.038645219 1.6229337e-38 292 271
-0.033516716 0.708 -0.038482159 1.5768718e-38 293 271
-0.032229774 0.70700002 -0.038427804 1.3561797e-38 294 271
-0.030946331 0.70599997 -0.038373452 1.4207167e-38 295 271
-0.029708479 0.70599997 -0.038373452 1.660318e-38 296 271
-0.028389972 0.704 -0.038264744 1.6695375e-38 297 271
-0.027117053 0.70300001 -0.038210396 1.6143275e-38 298 271
-0.025884461 0.70300001 -0.038210396 1.6235471e-38 299 271
-0.024581732 0.70099998 -0.038101684 1.5959612e-38 300 271
-0.023352645 0.70099998 -0.038101684 1.4576678e-38 301 271
-0.022091998 0.69999999 -0.038047329 1.2826778e-38 302 271
-0.020864666 0.69999999 -0.038047329 1.1628235e-38 303 271
-0.019637333 0.69999999 -0.038047329 1.2273973e-38 304 271
-0.018409999 0.69999999 -0.038047329 1.2181778e-38 305 271
-0.017182667 0.69999999 -0.038047329 1.2087058e-38 306 271
-0.015909746 0.69800001 -0.037938625 1.2087058e-38 307 271
-0.01468592 0.69800001 -0.037938625 1.1811903e-38 308 271
-0.013462093 0.69800001 -0.037938625 1.1904099e-38 309 271
-0.012238266 0.69800001 -0.037938625 1.3007207e-38 310 271
-0.01101444 0.69800001 -0.037938625 1.3191238e-38 311 271
-0.0097906133 0.69800001 -0.037938625 1.3006851e-38 312 271
-0.0085667865 0.69800001 -0.037938625 1.2914655e-38 313 271
-0.0073429602 0.69800001 -0.037938625 1.2547668e-38 314 271
-0.006119133 0.69800001 -0.037938625 1.2732059e-38 315 271
-0.0048953067 0.69800001 -0.037938625 1.3008279e-38 316 271
-0.0036714801 0.69800001 -0.037938625 1.2547301e-38 317 271
-0.0024476533 0.69800001 -0.037938625 1.2454752e-38 318 271
-0.0012238267 0.69800001 -0.037938625 1.2454752e-38 319 271
0 0.69800001 -0.037938625 1.2272523e-38 320 271
0.0012238267 0.69800001 -0.037938625 1.1811903e-38 321 271
0.0024476533 0.69800001 -0.037938625 1.1810106e-38 322 271
0.0036714801 0.69800001 -0.037938625 1.1994497e-38 323 271
0.0048953067 0.69800001 -0.037938625 1.2086693e-38 324 271
0.0061366665 0.69999999 -0.038047329 1.1994497e-38 325 271
0.0073639993 0.69999999 -0.038047329 1.2729897e-38 326 271
0.0086036054 0.70099998 -0.038101684 1.3098321e-38 327 271
0.0098607466 0.70300001 -0.038210396 1.3191939e-38 328 271
0.01109334 0.70300001 -0.038210396 1.3191939e-38 329 271
0.012343466 0.704 -0.038264744 1.2916428e-38 330 271
0.013616386 0.70599997 -0.038373452 1.2732037e-38 331 271
0.01487528 0.70700002 -0.038427804 1.2638765e-38 332 271
0.01613768 0.708 -0.038482159 1.2362538e-38 333 271
0.017428132 0.70999998 -0.038590867 1.2728803e-38 334 271
0.0186993 0.71100003 -0.038645219 1.2636248e-38 335 271
0.020002026 0.713 -0.038753927 1.245184e-38 336 271
0.021281958 0.71399999 -0.038808275 1.3558188e-38 337 271
0.022596961 0.71600002 -0.038916986 1.7425347e-38 338 271
0.02388566 0.71700001 -0.038971342 2.157379e-38 339 271
0.0251428 0.71700001 -0.038971342 2.2126951e-38 340 271
-0.040396802 0.72000003 -0.040396802 2.2403544e-38 288 272
-0.038971342 0.71700001 -0.040228479 2.0743664e-38 289 272
-0.037661601 0.71600002 -0.040172372 1.7429668e-38 290 272
-0.036253672 0.713 -0.040004052 1.595418e-38 291 272
-0.034905359 0.71100003 -0.039891839 1.6046744e-38 292 272
-0.033611398 0.70999998 -0.039835732 1.5954548e-38 293 272
-0.03227536 0.708 -0.039723519 1.4111731e-38 294 272
-0.030990168 0.70700002 -0.039667413 1.4388317e-38 295 272
-0.029708479 0.70599997 -0.039611302 1.5221326e-38 296 272
-0.028389972 0.704 -0.039499093 1.6327672e-38 297 272
-0.027155625 0.704 -0.039499093 1.6052161e-38 298 272
-0.025884461 0.70300001 -0.039442986 1.6052161e-38 299 272
-0.024651866 0.70300001 -0.039442986 1.6142922e-38 300 272
-0.023352645 0.70099998 -0.039330769 1.4852542e-38 301 272
-0.022123558 0.70099998 -0.039330769 1.2182125e-38 302 272
-0.020894472 0.70099998 -0.039330769 1.0430767e-38 303 272
-0.019665385 0.70099998 -0.039330769 1.2826425e-38 304 272
-0.018409999 0.69999999 -0.039274666 1.3379599e-38 305 272
-0.017182667 0.69999999 -0.039274666 1.3928806e-38 306 272
-0.015955333 0.69999999 -0.039274666 1.365222e-38 307 272
-0.01468592 0.69800001 -0.039162453 1.3652939e-38 308 272
-0.013462093 0.69800001 -0.039162453 1.319232e-38 309 272
-0.012238266 0.69800001 -0.039162453 1.3282362e-38 310 272
-0.01101444 0.69800001 -0.039162453 1.3282362e-38 311 272
-0.0097906133 0.69800001 -0.039162453 1.3008291e-38 312 272
-0.0085667865 0.69800001 -0.039162453 1.3008291e-38 313 272
-0.0073429602 0.69800001 -0.039162453 1.2364719e-38 314 272
-0.006119133 0.69800001 -0.039162453 1.2457273e-38 315 272
-0.0048953067 0.69800001 -0.039162453 1.2732415e-38 316 272
-0.0036714801 0.69800001 -0.039162453 1.2640219e-38 317 272
-0.0024476533 0.69800001 -0.039162453 1.2731336e-38 318 272
-0.0012238267 0.69800001 -0.039162453 1.2915727e-38 319 272
0 0.69800001 -0.039162453 1.3100474e-38 320 272
0.0012238267 0.69800001 -0.039162453 1.2823529e-38 321 272
0.0024476533 0.69800001 -0.039162453 1.2363626e-38 322 272
0.0036714801 0.69800001 -0.039162453 1.2179594e-38 323 272
0.0048953067 0.69800001 -0.039162453 1.25455e-38 324 272
0.0061366665 0.69999999 -0.039274666 1.1992326e-38 325 272
0.0073745195 0.70099998 -0.039330769 1.1806489e-38 326 272
0.0086036054 0.70099998 -0.039330769 1.1622458e-38 327 272
0.0098607466 0.70300001 -0.039442986 1.2546569e-38 328 272
0.011109119 0.704 -0.039499093 1.2731319e-38 329 272
0.012378532 0.70599997 -0.039611302 1.2360739e-38 330 272
0.013616386 0.70599997 -0.039611302 1.2268543e-38 331 272
0.01487528 0.70700002 -0.039667413 1.1993035e-38 332 272
0.01613768 0.708 -0.039723519 1.171609e-38 333 272
0.01745268 0.71100003 -0.039891839 1.1532775e-38 334 272
0.018751899 0.713 -0.040004052 1.1993751e-38 335 272
0.020030079 0.71399999 -0.040060159 1.2542235e-38 336 272
0.021371379 0.71700001 -0.040228479 1.4017724e-38 337 272
0.02262852 0.71700001 -0.040228479 1.7794128e-38 338 272
0.02388566 0.71700001 -0.040228479 2.1205368e-38 339 272
0.0251428 0.71700001 -0.040228479 2.1851087e-38 340 272
-0.040340692 0.71899998 -0.041601337 2.2403541e-38 288 273
-0.038971342 0.71700001 -0.041485619 2.0651465e-38 289 273
-0.037661601 0.71600002 -0.041427758 1.6690668e-38 290 273
-0.036304519 0.71399999 -0.041312039 1.4938951e-38 291 273
-0.035003547 0.713 -0.041254178 1.6416605e-38 292 273
-0.033611398 0.70999998 -0.041080594 1.6877583e-38 293 273
-0.03227536 0.708 -0.040964879 1.5495022e-38 294 273
-0.030990168 0.70700002 -0.040907022 1.4849652e-38 295 273
-0.029750559 0.70700002 -0.040907022 1.5312441e-38 296 273
-0.028389972 0.704 -0.040733438 1.6142562e-38 297 273
-0.027155625 0.704 -0.040733438 1.6418786e-38 298 273
-0.025884461 0.70300001 -0.040675577 1.6510981e-38 299 273
-0.024651866 0.70300001 -0.040675577 1.6142925e-38 300 273
-0.023352645 0.70099998 -0.040559858 1.4944381e-38 301 273
-0.022123558 0.70099998 -0.040559858 1.0801356e-38 302 273
-0.020894472 0.70099998 -0.040559858 7.4823116e-39 303 273
-0.019665385 0.70099998 -0.040559858 1.0798134e-38 304 273
-0.018436298 0.70099998 -0.040559858 1.2734242e-38 305 273
-0.017207211 0.70099998 -0.040559858 1.3191615e-38 306 273
-0.015955333 0.69999999 -0.040502001 1.3467842e-38 307 273
-0.014727999 0.69999999 -0.040502001 1.328812e-38 308 273
-0.013500666 0.69999999 -0.040502001 1.3472511e-38 309 273
-0.012238266 0.69800001 -0.040386278 1.4665299e-38 310 273
-0.01101444 0.69800001 -0.040386278 1.3927734e-38 311 273
-0.0097906133 0.69800001 -0.040386278 1.3468551e-38 312 273
-0.0085667865 0.69800001 -0.040386278 1.3560746e-38 313 273
-0.0073429602 0.69800001 -0.040386278 1.2457989e-38 314 273
-0.006119133 0.69800001 -0.040386278 1.2457989e-38 315 273
-0.0049093333 0.69999999 -0.040502001 1.1998084e-38 316 273
-0.0036714801 0.69800001 -0.040386278 1.2182475e-38 317 273
-0.0024476533 0.69800001 -0.040386278 1.3376336e-38 318 273
-0.0012273333 0.69999999 -0.040502001 1.3191944e-38 319 273
0 0.69999999 -0.040502001 1.3466368e-38 320 273
0.0012273333 0.69999999 -0.040502001 1.3466368e-38 321 273
0.0024546667 0.69999999 -0.040502001 1.2268909e-38 322 273
0.0036819996 0.69999999 -0.040502001 1.1807932e-38 323 273
0.0049093333 0.69999999 -0.040502001 1.0797729e-38 324 273
0.0061454331 0.70099998 -0.040559858 1.0336751e-38 325 273
0.0073745195 0.70099998 -0.040559858 1.0061947e-38 326 273
0.0086281532 0.70300001 -0.040675577 1.0245978e-38 327 273
0.0098747732 0.704 -0.040733438 1.3002861e-38 328 273
0.011109119 0.704 -0.040733438 1.327945e-38 329 273
0.012378532 0.70599997 -0.040849157 1.1900484e-38 330 273
0.013616386 0.70599997 -0.040849157 1.2084875e-38 331 273
0.01487528 0.70700002 -0.040907022 1.2083799e-38 332 273
0.01613768 0.708 -0.040964879 1.1622821e-38 333 273
0.01745268 0.71100003 -0.041138459 1.2450418e-38 334 273
0.018778199 0.71399999 -0.041312039 1.2726645e-38 335 273
0.020086186 0.71600002 -0.041427758 1.2818102e-38 336 273
0.021371379 0.71700001 -0.041485619 1.4570179e-38 337 273
0.02262852 0.71700001 -0.041485619 1.816435e-38 338 273
0.02388566 0.71700001 -0.041485619 2.1207165e-38 339 273
0.0251428 0.71700001 -0.041485619 2.1851085e-38 340 273
-0.040340692 0.71899998 -0.042861983 2.2403541e-38 288 274
-0.038916986 0.71600002 -0.042683143 2.0743661e-38 289 274
-0.037661601 0.71600002 -0.042683143 1.5585043e-38 290 274
-0.036304519 0.71399999 -0.042563915 1.3095761e-38 291 274
-0.035003547 0.713 -0.042504307 1.6601016e-38 292 274
-0.033658739 0.71100003 -0.042385083 1.8076146e-38 293 274
-0.032366529 0.70999998 -0.042325463 1.7248183e-38 294 274
-0.031034 0.708 -0.042206239 1.6879041e-38 295 274
-0.029750559 0.70700002 -0.042146627 1.6602814e-38 296 274
-0.028470624 0.70599997 -0.042087011 1.6602814e-38 297 274
-0.027155625 0.704 -0.041967787 1.6235471e-38 298 274
-0.02592128 0.704 -0.041967787 1.6235471e-38 299 274
-0.024651866 0.70300001 -0.041908171 1.6235476e-38 300 274
-0.023419274 0.70300001 -0.041908171 1.5129129e-38 301 274
-0.02218668 0.70300001 -0.041908171 1.0893904e-38 302 274
-0.020954086 0.70300001 -0.041908171 6.6532642e-39 303 274
-0.019721493 0.70300001 -0.041908171 8.2137754e-39 304 274
-0.018436298 0.70099998 -0.041788943 8.4900036e-39 305 274
-0.017207211 0.70099998 -0.041788943 6.9298889e-39 306 274
-0.015978126 0.70099998 -0.041788943 7.2064772e-39 307 274
-0.014727999 0.69999999 -0.041729331 5.2854652e-39 308 274
-0.013500666 0.69999999 -0.041729331 7.0371808e-39 309 274
-0.012273333 0.69999999 -0.041729331 1.3561094e-38 310 274
-0.011045999 0.69999999 -0.041729331 1.2085964e-38 311 274
-0.0098186666 0.69999999 -0.041729331 1.0795931e-38 312 274
-0.0085667865 0.69800001 -0.041610107 1.1164714e-38 313 274
-0.0073429602 0.69800001 -0.041610107 1.1993051e-38 314 274
-0.0061366665 0.69999999 -0.041729331 1.1993051e-38 315 274
-0.0049093333 0.69999999 -0.041729331 9.1428993e-39 316 274
-0.0036714801 0.69800001 -0.041610107 8.4049756e-39 317 274
-0.0024476533 0.69800001 -0.041610107 9.04818e-39 318 274
-0.0012273333 0.69999999 -0.041729331 8.7715931e-39 319 274
0 0.69999999 -0.041729331 9.8689555e-39 320 274
0.0012273333 0.69999999 -0.041729331 1.0422129e-38 321 274
0.0024546667 0.69999999 -0.041729331 8.6772549e-39 322 274
0.0036819996 0.69999999 -0.041729331 8.4925049e-39 323 274
0.0049163462 0.70099998 -0.041788943 7.8532535e-39 324 274
0.0061454331 0.70099998 -0.041788943 8.8674041e-39 325 274
0.0073955595 0.70300001 -0.041908171 1.0338919e-38 326 274
0.0086281532 0.70300001 -0.041908171 1.0892093e-38 327 274
0.0098747732 0.704 -0.041967787 1.3279821e-38 328 274
0.011109119 0.704 -0.041967787 1.3003594e-38 329 274
0.012378532 0.70599997 -0.042087011 1.1807932e-38 330 274
0.013635674 0.70700002 -0.042146627 1.162354e-38 331 274
0.01489632 0.708 -0.042206239 1.1990879e-38 332 274
0.016183265 0.70999998 -0.042325463 1.2544051e-38 333 274
0.017501773 0.713 -0.042504307 1.2636957e-38 334 274
0.018778199 0.71399999 -0.042563915 1.2913544e-38 335 274
0.020086186 0.71600002 -0.042683143 1.3555667e-38 336 274
0.021371379 0.71700001 -0.042742759 1.5215548e-38 337 274
0.022691639 0.71899998 -0.042861983 1.8624612e-38 338 274
0.023952285 0.71899998 -0.042861983 2.1667069e-38 339 274
0.025212931 0.71899998 -0.042861983 2.2219147e-38 340 274
-0.038916986 0.71600002 -0.043938532 2.1112799e-38 289 275
-0.037661601 0.71600002 -0.043938532 1.4939323e-38 290 275
-0.036304519 0.71399999 -0.043815799 1.0421737e-38 291 275
-0.035052639 0.71399999 -0.043815799 1.098609e-38 292 275
-0.033753417 0.713 -0.043754432 1.4858307e-38 293 275
-0.032412119 0.71100003 -0.043631699 1.7615537e-38 294 275
-0.031121666 0.70999998 -0.043570329 1.7523341e-38 295 275
-0.02979264 0.708 -0.043447599 1.7062717e-38 296 275
-0.028470624 0.70599997 -0.043324865 1.6786129e-38 297 275
-0.027155625 0.704 -0.043202132 1.6328025e-38 298 275
-0.02592128 0.704 -0.043202132 1.6143275e-38 299 275
-0.024651866 0.70300001 -0.043140765 1.6142922e-38 300 275
-0.023419274 0.70300001 -0.043140765 1.5221326e-38 301 275
-0.02218668 0.70300001 -0.043140765 1.3563601e-38 302 275
-0.020954086 0.70300001 -0.043140765 1.1903721e-38 303 275
-0.019721493 0.70300001 -0.043140765 1.1440594e-38 304 275
-0.018488899 0.70300001 -0.043140765 1.0518997e-38 305 275
-0.017256306 0.70300001 -0.043140765 7.8529312e-39 306 275
-0.015978126 0.70099998 -0.043018032 6.19377e-39 307 275
-0.014727999 0.69999999 -0.042956665 3.0745806e-39 308 275
-0.013500666 0.69999999 -0.042956665 5.19508e-39 309 275
-0.012273333 0.69999999 -0.042956665 1.3652195e-38 310 275
-0.011045999 0.69999999 -0.042956665 1.2269259e-38 311 275
-0.0098186666 0.69999999 -0.042956665 9.4162212e-39 312 275
-0.0085913334 0.69999999 -0.042956665 9.8771994e-39 313 275
-0.0073639993 0.69999999 -0.042956665 1.2355719e-38 314 275
-0.0061366665 0.69999999 -0.042956665 1.3093284e-38 315 275
-0.0049093333 0.69999999 -0.042956665 9.5113259e-39 316 275
-0.0036819996 0.69999999 -0.042956665 8.3127828e-39 317 275
-0.0024546667 0.69999999 -0.042956665 8.4935741e-39 318 275
-0.0012273333 0.69999999 -0.042956665 8.5861284e-39 319 275
0 0.70099998 -0.043018032 9.5966874e-39 320 275
0.0012290865 0.70099998 -0.043018032 1.0518644e-38 321 275
0.0024581731 0.70099998 -0.043018032 9.970509e-39 322 275
0.0036977797 0.70300001 -0.043140765 1.0062705e-38 323 275
0.0049303733 0.70300001 -0.043140765 1.1257651e-38 324 275
0.0061629666 0.70300001 -0.043140765 1.0981065e-38 325 275
0.0074060797 0.704 -0.043202132 1.080062e-38 326 275
0.0086404262 0.704 -0.043202132 1.1630379e-38 327 275
0.0098747732 0.704 -0.043202132 1.3189423e-38 328 275
0.011109119 0.704 -0.043202132 1.2451858e-38 329 275
0.012378532 0.70599997 -0.043324865 1.162354e-38 330 275
0.013635674 0.70700002 -0.043386232 1.1439508e-38 331 275
0.014938398 0.70999998 -0.043570329 1.1808288e-38 332 275
0.01620606 0.71100003 -0.043631699 1.2545853e-38 333 275
0.017501773 0.713 -0.043754432 1.2453289e-38 334 275
0.018778199 0.71399999 -0.043815799 1.2361092e-38 335 275
0.020086186 0.71600002 -0.043938532 1.3096493e-38 336 275
0.021371379 0.71700001 -0.043999899 1.5032602e-38 337 275
0.022691639 0.71899998 -0.044122629 1.7797372e-38 338 275
0.023952285 0.71899998 -0.044122629 2.0932023e-38 339 275
0.025212931 0.71899998 -0.044122629 2.2035835e-38 340 275
-0.038808275 0.71399999 -0.045067675 2.1573777e-38 289 276
-0.037556399 0.71399999 -0.045067675 1.5306661e-38 290 276
-0.036304519 0.71399999 -0.045067675 9.0377179e-39 291 276
-0.035052639 0.71399999 -0.045067675 4.2640882e-39 292 276
-0.033753417 0.713 -0.045004558 7.5831308e-39 293 276
-0.032503292 0.713 -0.045004558 1.5773795e-38 294 276
-0.031165501 0.71100003 -0.044878319 1.6972338e-38 295 276
-0.02979264 0.708 -0.044688959 1.6787572e-38 296 276
-0.028470624 0.70599997 -0.044562716 1.6510984e-38 297 276
-0.027155625 0.704 -0.044436477 1.6418786e-38 298 276
-0.02592128 0.704 -0.044436477 1.6418786e-38 299 276
-0.024651866 0.70300001 -0.04437336 1.6051805e-38 300 276
-0.023419274 0.70300001 -0.04437336 1.5037652e-38 301 276
-0.02218668 0.70300001 -0.04437336 1.4114974e-38 302 276
-0.020954086 0.70300001 -0.04437336 1.2824235e-38 303 276
-0.019749546 0.704 -0.044436477 1.3284134e-38 304 276
-0.018488899 0.70300001 -0.04437336 1.3653277e-38 305 276
-0.017256306 0.70300001 -0.04437336 1.3287387e-38 306 276
-0.016023712 0.70300001 -0.04437336 1.3287387e-38 307 276
-0.014749039 0.70099998 -0.044247117 1.2827132e-38 308 276
-0.013519952 0.70099998 -0.044247117 1.3103358e-38 309 276
-0.012273333 0.69999999 -0.044183996 1.4022069e-38 310 276
-0.011045999 0.69999999 -0.044183996 1.3100472e-38 311 276
-0.0098186666 0.69999999 -0.044183996 1.1719339e-38 312 276
-0.0085913334 0.69999999 -0.044183996 1.1442392e-38 313 276
-0.0073639993 0.69999999 -0.044183996 1.1901945e-38 314 276
-0.0061366665 0.69999999 -0.044183996 1.2547315e-38 315 276
-0.0049093333 0.69999999 -0.044183996 1.2180682e-38 316 276
-0.0036819996 0.69999999 -0.044183996 1.1811901e-38 317 276
-0.0024546667 0.69999999 -0.044183996 1.2085967e-38 318 276
-0.0012290865 0.70099998 -0.044247117 1.2085967e-38 319 276
0 0.70099998 -0.044247117 1.2913928e-38 320 276
0.0012325933 0.70300001 -0.04437336 1.3559297e-38 321 276
0.0024651866 0.70300001 -0.04437336 1.273493e-38 322 276
0.0036977797 0.70300001 -0.04437336 1.2181757e-38 323 276
0.0049303733 0.70300001 -0.04437336 1.2728812e-38 324 276
0.0061717331 0.704 -0.044436477 1.2175997e-38 325 276
0.0074060797 0.704 -0.044436477 1.0984288e-38 326 276
0.0086404262 0.704 -0.044436477 1.1445266e-38 327 276
0.0098747732 0.704 -0.044436477 1.2453658e-38 328 276
0.011140679 0.70599997 -0.044562716 1.1716093e-38 329 276
0.012378532 0.70599997 -0.044562716 1.1623537e-38 330 276
0.013635674 0.70700002 -0.044625837 1.1623537e-38 331 276
0.014938398 0.70999998 -0.044815198 1.1808651e-38 332 276
0.01620606 0.71100003 -0.044878319 1.1993401e-38 333 276
0.017526319 0.71399999 -0.045067675 1.2360739e-38 334 276
0.0188308 0.71600002 -0.045193922 1.2268543e-38 335 276
0.020086186 0.71600002 -0.045193922 1.3004661e-38 336 276
0.021371379 0.71700001 -0.045257039 1.4756376e-38 337 276
0.022691639 0.71899998 -0.045383278 1.7520785e-38 338 276
0.023952285 0.71899998 -0.045383278 2.0839828e-38 339 276
0.025212931 0.71899998 -0.045383278 2.2035479e-38 340 276
-0.038808275 0.71399999 -0.046319555 2.2126951e-38 289 277
-0.037556399 0.71399999 -0.046319555 1.659523e-38 290 277
-0.036304519 0.71399999 -0.046319555 1.0602513e-38 291 277
-0.035052639 0.71399999 -0.046319555 1.5911338e-39 292 277
-0.033800758 0.71399999 -0.046319555 2.6056444e-39 293 277
-0.032548878 0.71399999 -0.046319555 9.0568344e-39 294 277
-0.031253166 0.713 -0.046254687 1.3389669e-38 295 277
-0.029876797 0.70999998 -0.046060063 1.6697175e-38 296 277
