# .PCD v.7 - Point Cloud Data file format
FIELDS x y z rgb imX imY
SIZE 4 4 4 4 4 4
TYPE F F F F F F
COUNT 1 1 1 1 1 1
WIDTH 832
HEIGHT 1
VIEWPOINT 0 0 0 1 0 0 0
POINTS 832
DATA ascii
0.0048812795 0.69599998 -0.030507999 1.2084895e-38 324 265
0.0061015999 0.69599998 -0.030507999 1.2084895e-38 325 265
0.00733244 0.69700003 -0.030551834 1.1534594e-38 326 265
0.0085545136 0.69700003 -0.030551834 1.1534594e-38 327 265
0.0097906133 0.69800001 -0.030595668 1.2085244e-38 328 265
0.01101444 0.69800001 -0.030595668 1.1808657e-38 329 265
0.012238266 0.69800001 -0.030595668 1.2175278e-38 330 265
0.013500666 0.69999999 -0.030683333 1.1898331e-38 331 265
0.014791119 0.70300001 -0.030814834 1.1898685e-38 332 265
0.016046507 0.704 -0.030858666 1.2175273e-38 333 265
0.017280852 0.704 -0.030858666 1.2727e-38 334 265
0.018567799 0.70599997 -0.030946331 1.2819196e-38 335 265
0.019833706 0.70700002 -0.030990168 1.28199e-38 336 265
0.021073313 0.70700002 -0.030990168 1.3741857e-38 337 265
0.022344479 0.708 -0.031034 1.5123696e-38 338 265
0.023585839 0.708 -0.031034 1.9733477e-38 339 265
-0.039891839 0.71100003 -0.032412119 2.2403544e-38 288 266
-0.038645219 0.71100003 -0.032412119 2.166562e-38 289 266
-0.037345998 0.70999998 -0.032366529 1.9358205e-38 290 266
-0.036101133 0.70999998 -0.032366529 1.5855132e-38 291 266
-0.034758076 0.708 -0.03227536 1.4831605e-38 292 266
-0.033516716 0.708 -0.03227536 1.2618551e-38 293 266
-0.032093015 0.704 -0.032093015 1.361648e-38 294 266
-0.030858666 0.704 -0.032093015 1.2601968e-38 295 266
-0.029624319 0.704 -0.032093015 1.4164277e-38 296 266
-0.028349647 0.70300001 -0.032047424 1.5270625e-38 297 266
-0.027039904 0.70099998 -0.031956252 1.4716029e-38 298 266
-0.025773998 0.69999999 -0.031910665 1.0198443e-38 299 266
-0.024476532 0.69800001 -0.031819493 1.3880895e-38 300 266
-0.023219392 0.69700003 -0.03177391 2.3471042e-38 301 266
-0.02199732 0.69700003 -0.03177391 1.6142559e-38 302 266
-0.020775247 0.69700003 -0.03177391 1.6234755e-38 303 266
-0.019553173 0.69700003 -0.03177391 1.4669242e-38 304 266
-0.018331099 0.69700003 -0.03177391 1.1903015e-38 305 266
-0.017109027 0.69700003 -0.03177391 1.1533522e-38 306 266
-0.015864158 0.69599998 -0.031728316 1.2178891e-38 307 266
-0.014643839 0.69599998 -0.031728316 1.2179254e-38 308 266
-0.013384946 0.69400001 -0.031637147 1.2179254e-38 309 266
-0.012168133 0.69400001 -0.031637147 1.2455475e-38 310 266
-0.01095132 0.69400001 -0.031637147 1.2547671e-38 311 266
-0.0097345067 0.69400001 -0.031637147 1.1722226e-38 312 266
-0.0085176928 0.69400001 -0.031637147 1.1906617e-38 313 266
-0.0073008798 0.69400001 -0.031637147 1.2271807e-38 314 266
-0.0060840664 0.69400001 -0.031637147 1.2087414e-38 315 266
-0.0048672534 0.69400001 -0.031637147 1.3095449e-38 316 266
-0.0036504399 0.69400001 -0.031637147 1.2911058e-38 317 266
-0.0024336267 0.69400001 -0.031637147 1.1992342e-38 318 266
-0.0012168133 0.69400001 -0.031637147 1.1162581e-38 319 266
0 0.69400001 -0.031637147 1.217709e-38 320 266
0.0012203199 0.69599998 -0.031728316 1.2730264e-38 321 266
0.0024406398 0.69599998 -0.031728316 1.2545503e-38 322 266
0.0036609597 0.69599998 -0.031728316 1.2268556e-38 323 266
0.0048812795 0.69599998 -0.031728316 1.2268559e-38 324 266
0.0061103669 0.69700003 -0.03177391 1.2268559e-38 325 266
0.00733244 0.69700003 -0.03177391 1.2084172e-38 326 266
0.0085545136 0.69700003 -0.03177391 1.189978e-38 327 266
0.0097906133 0.69800001 -0.031819493 1.1810452e-38 328 266
0.01101444 0.69800001 -0.031819493 1.2087399e-38 329 266
0.012273333 0.69999999 -0.031910665 1.263732e-38 330 266
0.013519952 0.70099998 -0.031956252 1.2084146e-38 331 266
0.014812159 0.704 -0.032093015 1.2359291e-38 332 266
0.016092092 0.70599997 -0.032184184 1.2451487e-38 333 266
0.017329946 0.70599997 -0.032184184 1.2543685e-38 334 266
0.018567799 0.70599997 -0.032184184 1.245149e-38 335 266
0.019833706 0.70700002 -0.032229774 1.3186535e-38 336 266
0.021103119 0.708 -0.03227536 1.410849e-38 337 266
0.022407599 0.70999998 -0.032366529 1.5124419e-38 338 266
0.023652466 0.70999998 -0.032366529 1.9826396e-38 339 266
-0.039891839 0.71100003 -0.033658739 2.2679769e-38 288 267
-0.038645219 0.71100003 -0.033658739 2.2126595e-38 289 267
-0.037345998 0.70999998 -0.033611398 1.9729865e-38 290 267
-0.036101133 0.70999998 -0.033611398 1.68718e-38 291 267
-0.034758076 0.708 -0.033516716 1.5849732e-38 292 267
-0.033516716 0.708 -0.033516716 1.6126679e-38 293 267
-0.032229774 0.70700002 -0.033469379 1.6582969e-38 294 267
-0.030946331 0.70599997 -0.033422034 1.3263926e-38 295 267
-0.029624319 0.704 -0.03332736 1.3154817e-38 296 267
-0.028349647 0.70300001 -0.033280019 1.2325056e-38 297 267
-0.027039904 0.70099998 -0.03318534 1.3790129e-38 298 267
-0.025810819 0.70099998 -0.03318534 1.102426e-38 299 267
-0.024546666 0.69999999 -0.033137999 1.3789444e-38 300 267
-0.023252707 0.69800001 -0.033043321 2.3470705e-38 301 267
-0.02202888 0.69800001 -0.033043321 1.6143278e-38 302 267
-0.020805053 0.69800001 -0.033043321 1.6143278e-38 303 267
-0.019581227 0.69800001 -0.033043321 1.4576691e-38 304 267
-0.018331099 0.69700003 -0.03299598 1.2640582e-38 305 267
-0.017109027 0.69700003 -0.03299598 1.2635916e-38 306 267
-0.015886955 0.69700003 -0.03299598 1.2912503e-38 307 267
-0.014643839 0.69599998 -0.032948639 1.2179977e-38 308 267
-0.013423519 0.69599998 -0.032948639 1.1995944e-38 309 267
-0.0122032 0.69599998 -0.032948639 1.1811553e-38 310 267
-0.01095132 0.69400001 -0.032853961 1.1718999e-38 311 267
-0.0097345067 0.69400001 -0.032853961 1.1262695e-38 312 267
-0.0085176928 0.69400001 -0.032853961 1.2092097e-38 313 267
-0.0073008798 0.69400001 -0.032853961 1.1721153e-38 314 267
-0.0060840664 0.69400001 -0.032853961 1.1536761e-38 315 267
-0.0048672534 0.69400001 -0.032853961 1.2546948e-38 316 267
-0.0036504399 0.69400001 -0.032853961 1.273098e-38 317 267
-0.0024406398 0.69599998 -0.032948639 1.23622e-38 318 267
-0.0012203199 0.69599998 -0.032948639 1.1716831e-38 319 267
0 0.69700003 -0.03299598 1.2454399e-38 320 267
0.0012220733 0.69700003 -0.03299598 1.2546596e-38 321 267
0.0024441467 0.69700003 -0.03299598 1.2270355e-38 322 267
0.00366622 0.69700003 -0.03299598 1.2362909e-38 323 267
0.0048882933 0.69700003 -0.03299598 1.2178515e-38 324 267
0.0061103669 0.69700003 -0.03299598 1.2085961e-38 325 267
0.0073429602 0.69800001 -0.033043321 1.180938e-38 326 267
0.0085667865 0.69800001 -0.033043321 1.180938e-38 327 267
0.0097906133 0.69800001 -0.033043321 1.1902654e-38 328 267
0.011045999 0.69999999 -0.033137999 1.2087046e-38 329 267
0.012273333 0.69999999 -0.033137999 1.217851e-38 330 267
0.013558527 0.70300001 -0.033280019 1.1902282e-38 331 267
0.014812159 0.704 -0.03332736 1.1902279e-38 332 267
0.016092092 0.70599997 -0.033422034 1.1902279e-38 333 267
0.017329946 0.70599997 -0.033422034 1.2268543e-38 334 267
0.018594101 0.70700002 -0.033469379 1.2913913e-38 335 267
0.019917866 0.70999998 -0.033611398 1.4293603e-38 336 267
0.021162732 0.70999998 -0.033611398 1.4017018e-38 337 267
0.022439159 0.71100003 -0.033658739 1.4755639e-38 338 267
0.023685781 0.71100003 -0.033658739 1.9641647e-38 339 267
-0.038645219 0.71100003 -0.034905359 2.2035479e-38 289 268
-0.037398599 0.71100003 -0.034905359 1.9178859e-38 290 268
-0.036101133 0.70999998 -0.034856264 1.6966164e-38 291 268
-0.034856264 0.70999998 -0.034856264 1.7422826e-38 292 268
-0.033516716 0.708 -0.034758076 1.7422826e-38 293 268
-0.032229774 0.70700002 -0.034708988 1.6777459e-38 294 268
-0.030946331 0.70599997 -0.034659892 1.5210134e-38 295 268
-0.029708479 0.70599997 -0.034659892 1.4462839e-38 296 268
-0.028389972 0.704 -0.034561705 1.1604775e-38 297 268
-0.027117053 0.70300001 -0.034512613 1.2970057e-38 298 268
-0.025810819 0.70099998 -0.034414422 8.6365023e-39 299 268
-0.024546666 0.69999999 -0.034365334 1.3512116e-38 300 268
-0.023252707 0.69800001 -0.034267146 2.3470684e-38 301 268
-0.02202888 0.69800001 -0.034267146 1.6142922e-38 302 268
-0.020805053 0.69800001 -0.034267146 1.6142922e-38 303 268
-0.019581227 0.69800001 -0.034267146 1.4761085e-38 304 268
-0.0183574 0.69800001 -0.034267146 1.3101923e-38 305 268
-0.017133573 0.69800001 -0.034267146 1.2548039e-38 306 268
-0.015886955 0.69700003 -0.034218054 1.2179257e-38 307 268
-0.01466488 0.69700003 -0.034218054 1.1720799e-38 308 268
-0.013442807 0.69700003 -0.034218054 1.1628604e-38 309 268
-0.0122032 0.69599998 -0.034168959 1.1903749e-38 310 268
-0.010982879 0.69599998 -0.034168959 1.1995944e-38 311 268
-0.0097625591 0.69599998 -0.034168959 1.1997384e-38 312 268
-0.0085422397 0.69599998 -0.034168959 1.1997384e-38 313 268
-0.0073219193 0.69599998 -0.034168959 1.1903746e-38 314 268
-0.0061015999 0.69599998 -0.034168959 1.1995942e-38 315 268
-0.0048882933 0.69700003 -0.034218054 1.2272879e-38 316 268
-0.00366622 0.69700003 -0.034218054 1.245727e-38 317 268
-0.0024441467 0.69700003 -0.034218054 1.1811903e-38 318 268
-0.0012220733 0.69700003 -0.034218054 1.0889588e-38 319 268
0 0.69700003 -0.034218054 1.1351292e-38 320 268
0.0012220733 0.69700003 -0.034218054 1.1536042e-38 321 268
0.0024441467 0.69700003 -0.034218054 1.1903017e-38 322 268
0.00366622 0.69700003 -0.034218054 1.1903017e-38 323 268
0.0048882933 0.69700003 -0.034218054 1.2269636e-38 324 268
0.006119133 0.69800001 -0.034267146 1.2085244e-38 325 268
0.0073429602 0.69800001 -0.034267146 1.2268556e-38 326 268
0.0085667865 0.69800001 -0.034267146 1.2360753e-38 327 268
0.0098186666 0.69999999 -0.034365334 1.1902652e-38 328 268
0.011045999 0.69999999 -0.034365334 1.1994847e-38 329 268
0.012290866 0.70099998 -0.034414422 1.2177794e-38 330 268
0.013577812 0.704 -0.034561705 1.2177794e-38 331 268
0.014812159 0.704 -0.034561705 1.2454011e-38 332 268
0.016092092 0.70599997 -0.034659892 1.2638402e-38 333 268
0.017354494 0.70700002 -0.034708988 1.3557116e-38 334 268
0.0186204 0.708 -0.034758076 1.3649311e-38 335 268
0.019917866 0.70999998 -0.034856264 1.3467437e-38 336 268
0.021192541 0.71100003 -0.034905359 1.3375241e-38 337 268
0.022439159 0.71100003 -0.034905359 1.4663444e-38 338 268
0.02378572 0.71399999 -0.035052639 1.9734203e-38 339 268
0.025037598 0.71399999 -0.035052639 2.221915e-38 340 268
-0.038753927 0.713 -0.036253672 2.2034402e-38 289 269
-0.037503798 0.713 -0.036253672 1.8719323e-38 290 269
-0.036151983 0.71100003 -0.036151983 1.6506986e-38 291 269
-0.034856264 0.70999998 -0.036101133 1.7056937e-38 292 269
-0.033516716 0.708 -0.03599944 1.6687794e-38 293 269
-0.032229774 0.70700002 -0.035948593 1.5585419e-38 294 269
-0.030946331 0.70599997 -0.035897743 1.5677615e-38 295 269
-0.029708479 0.70599997 -0.035897743 1.7332097e-38 296 269
-0.028389972 0.704 -0.035796054 1.6041359e-38 297 269
-0.027117053 0.70300001 -0.035745207 1.5017789e-38 298 269
-0.025884461 0.70300001 -0.035745207 7.3655512e-39 299 269
-0.024546666 0.69999999 -0.035592664 1.3414503e-38 300 269
-0.023319334 0.69999999 -0.035592664 2.3469228e-38 301 269
-0.02202888 0.69800001 -0.035490975 1.6234755e-38 302 269
-0.020805053 0.69800001 -0.035490975 1.6142559e-38 303 269
-0.019581227 0.69800001 -0.035490975 1.4668886e-38 304 269
-0.0183574 0.69800001 -0.035490975 1.2825332e-38 305 269
-0.017133573 0.69800001 -0.035490975 1.2640232e-38 306 269
-0.015909746 0.69800001 -0.035490975 1.227181e-38 307 269
-0.01466488 0.69700003 -0.035440128 1.1813715e-38 308 269
-0.013442807 0.69700003 -0.035440128 1.1813715e-38 309 269
-0.012220734 0.69700003 -0.035440128 1.2181059e-38 310 269
-0.010982879 0.69599998 -0.035389278 1.2181059e-38 311 269
-0.0097625591 0.69599998 -0.035389278 1.217998e-38 312 269
-0.0085422397 0.69599998 -0.035389278 1.1995588e-38 313 269
-0.0073219193 0.69599998 -0.035389278 1.1996309e-38 314 269
-0.0061103669 0.69700003 -0.035440128 1.1996309e-38 315 269
-0.0048953067 0.69800001 -0.035490975 1.2364721e-38 316 269
-0.00366622 0.69700003 -0.035440128 1.2456917e-38 317 269
-0.0024441467 0.69700003 -0.035440128 1.1903743e-38 318 269
-0.0012238267 0.69800001 -0.035490975 1.1534961e-38 319 269
0 0.69800001 -0.035490975 1.107578e-38 320 269
0.0012238267 0.69800001 -0.035490975 1.1352367e-38 321 269
0.0024476533 0.69800001 -0.035490975 1.190302e-38 322 269
0.0036714801 0.69800001 -0.035490975 1.1995216e-38 323 269
0.0048953067 0.69800001 -0.035490975 1.2269639e-38 324 269
0.006119133 0.69800001 -0.035490975 1.2177443e-38 325 269
0.0073639993 0.69999999 -0.035592664 1.2177797e-38 326 269
0.0085913334 0.69999999 -0.035592664 1.2269992e-38 327 269
0.0098326923 0.70099998 -0.035643511 1.2178159e-38 328 269
0.011061779 0.70099998 -0.035643511 1.2085964e-38 329 269
0.012325933 0.70300001 -0.035745207 1.2268559e-38 330 269
0.013577812 0.704 -0.035796054 1.2452951e-38 331 269
0.014854239 0.70599997 -0.035897743 1.2638049e-38 332 269
0.016114887 0.70700002 -0.035948593 1.3006831e-38 333 269
0.017354494 0.70700002 -0.035948593 1.4293603e-38 334 269
0.018672999 0.70999998 -0.036101133 1.3832626e-38 335 269
0.01994592 0.71100003 -0.036151983 1.3006459e-38 336 269
0.021192541 0.71100003 -0.036151983 1.2914263e-38 337 269
0.022502279 0.713 -0.036253672 1.4570526e-38 338 269
0.02378572 0.71399999 -0.036304519 2.0009708e-38 339 269
0.025037598 0.71399999 -0.036304519 2.2311345e-38 340 269
-0.037556399 0.71399999 -0.037556399 1.927106e-38 290 270
-0.036151983 0.71100003 -0.037398599 1.7518983e-38 291 270
-0.034905359 0.71100003 -0.037398599 1.5769085e-38 292 270
-0.033516716 0.708 -0.0372408 1.5123715e-38 293 270
-0.032229774 0.70700002 -0.037188202 1.4114624e-38 294 270
-0.030990168 0.70700002 -0.037188202 1.4114624e-38 295 270
-0.029708479 0.70599997 -0.037135597 1.5679433e-38 296 270
-0.028389972 0.704 -0.037030395 1.6693224e-38 297 270
-0.027155625 0.704 -0.037030395 1.7056194e-38 298 270
-0.025884461 0.70300001 -0.036977798 1.3183978e-38 299 270
-0.024651866 0.70300001 -0.036977798 1.3811001e-38 300 270
-0.023319334 0.69999999 -0.036819998 1.9896273e-38 301 270
-0.02202888 0.69800001 -0.0367148 1.6325871e-38 302 270
-0.020805053 0.69800001 -0.0367148 1.6418067e-38 303 270
-0.019637333 0.69999999 -0.036819998 1.5036583e-38 304 270
-0.018409999 0.69999999 -0.036819998 1.3008279e-38 305 270
-0.017133573 0.69800001 -0.0367148 1.2823179e-38 306 270
-0.015909746 0.69800001 -0.0367148 1.2915374e-38 307 270
-0.01468592 0.69800001 -0.0367148 1.2274326e-38 308 270
-0.013462093 0.69800001 -0.0367148 1.2274326e-38 309 270
-0.012238266 0.69800001 -0.0367148 1.2640232e-38 310 270
-0.01099866 0.69700003 -0.036662199 1.2548036e-38 311 270
-0.0097765867 0.69700003 -0.036662199 1.2454766e-38 312 270
-0.0085545136 0.69700003 -0.036662199 1.254732e-38 313 270
-0.00733244 0.69700003 -0.036662199 1.245692e-38 314 270
-0.006119133 0.69800001 -0.0367148 1.2272529e-38 315 270
-0.0048953067 0.69800001 -0.0367148 1.2272526e-38 316 270
-0.0036714801 0.69800001 -0.0367148 1.2364721e-38 317 270
-0.0024476533 0.69800001 -0.0367148 1.2730983e-38 318 270
-0.0012238267 0.69800001 -0.0367148 1.2823179e-38 319 270
0 0.69800001 -0.0367148 1.1354162e-38 320 270
0.0012238267 0.69800001 -0.0367148 1.1169771e-38 321 270
0.0024476533 0.69800001 -0.0367148 1.1536037e-38 322 270
0.0036714801 0.69800001 -0.0367148 1.1536037e-38 323 270
0.0048953067 0.69800001 -0.0367148 1.2085614e-38 324 270
0.0061366665 0.69999999 -0.036819998 1.2177809e-38 325 270
0.0073639993 0.69999999 -0.036819998 1.2085967e-38 326 270
0.0085913334 0.69999999 -0.036819998 1.2362554e-38 327 270
0.0098326923 0.70099998 -0.036872596 1.2453307e-38 328 270
0.011061779 0.70099998 -0.036872596 1.2453307e-38 329 270
0.012325933 0.70300001 -0.036977798 1.25455e-38 330 270
0.013616386 0.70599997 -0.037135597 1.2637696e-38 331 270
0.014854239 0.70599997 -0.037135597 1.2638765e-38 332 270
0.016114887 0.70700002 -0.037188202 1.2546569e-38 333 270
0.017379038 0.708 -0.0372408 1.3279818e-38 334 270
0.018672999 0.70999998 -0.037345998 1.2911396e-38 335 270
0.01994592 0.71100003 -0.037398599 1.2819914e-38 336 270
0.021192541 0.71100003 -0.037398599 1.2819914e-38 337 270
0.022502279 0.713 -0.037503798 1.4661641e-38 338 270
0.02378572 0.71399999 -0.037556399 2.0377771e-38 339 270
0.025037598 0.71399999 -0.037556399 2.2219868e-38 340 270
-0.040677335 0.72500002 -0.039406165 2.277197e-38 288 271
-0.039134402 0.72000003 -0.039134402 2.1850015e-38 289 271
-0.037556399 0.71399999 -0.038808275 1.8903001e-38 290 271
-0.036253672 0.713 -0.038753927 1.7520066e-38 291 271
-0.034905359 0.71100003 -0.038645219 1.5861283e-38 292 271
-0.033611398 0.70999998 -0.038590867 1.466274e-38 293 271
-0.032229774 0.70700002 -0.038427804 1.4207172e-38 294 271
-0.030990168 0.70700002 -0.038427804 1.4114618e-38 295 271
-0.029708479 0.70599997 -0.038373452 1.3930955e-38 296 271
-0.028389972 0.704 -0.038264744 1.5221694e-38 297 271
-0.027155625 0.704 -0.038264744 1.7613376e-38 298 271
-0.025884461 0.70300001 -0.038210396 1.6968006e-38 299 271
-0.024651866 0.70300001 -0.038210396 1.4762494e-38 300 271
-0.023319334 0.69999999 -0.038047329 1.4946886e-38 301 271
-0.022091998 0.69999999 -0.038047329 1.605001e-38 302 271
-0.020864666 0.69999999 -0.038047329 1.6142206e-38 303 271
-0.019637333 0.69999999 -0.038047329 1.4760719e-38 304 271
-0.018409999 0.69999999 -0.038047329 1.2824611e-38 305 271
-0.017182667 0.69999999 -0.038047329 1.2546948e-38 306 271
-0.015955333 0.69999999 -0.038047329 1.3007926e-38 307 271
-0.01468592 0.69800001 -0.037938625 1.2824979e-38 308 271
-0.013462093 0.69800001 -0.037938625 1.2640229e-38 309 271
-0.012238266 0.69800001 -0.037938625 1.2547318e-38 310 271
-0.01101444 0.69800001 -0.037938625 1.2362925e-38 311 271
-0.0097906133 0.69800001 -0.037938625 1.2454399e-38 312 271
-0.0085667865 0.69800001 -0.037938625 1.2546596e-38 313 271
-0.0073429602 0.69800001 -0.037938625 1.254839e-38 314 271
-0.006119133 0.69800001 -0.037938625 1.2364358e-38 315 271
-0.0048953067 0.69800001 -0.037938625 1.2455475e-38 316 271
-0.0036714801 0.69800001 -0.037938625 1.2178888e-38 317 271
-0.0024476533 0.69800001 -0.037938625 1.2546952e-38 318 271
-0.0012238267 0.69800001 -0.037938625 1.2915374e-38 319 271
0 0.69800001 -0.037938625 1.1997011e-38 320 271
0.0012238267 0.69800001 -0.037938625 1.1628588e-38 321 271
0.0024476533 0.69800001 -0.037938625 1.190302e-38 322 271
0.0036714801 0.69800001 -0.037938625 1.1995216e-38 323 271
0.0049093333 0.69999999 -0.038047329 1.2270005e-38 324 271
0.0061366665 0.69999999 -0.038047329 1.2177809e-38 325 271
0.0073639993 0.69999999 -0.038047329 1.2177806e-38 326 271
0.0086036054 0.70099998 -0.038101684 1.2454752e-38 327 271
0.0098607466 0.70300001 -0.038210396 1.2269636e-38 328 271
0.01109334 0.70300001 -0.038210396 1.1993048e-38 329 271
0.012343466 0.704 -0.038264744 1.2086314e-38 330 271
0.013616386 0.70599997 -0.038373452 1.2731684e-38 331 271
0.01487528 0.70700002 -0.038427804 1.2912838e-38 332 271
0.016114887 0.70700002 -0.038427804 1.2636251e-38 333 271
0.017428132 0.70999998 -0.038590867 1.2358944e-38 334 271
0.0186993 0.71100003 -0.038645219 1.2358944e-38 335 271
0.01994592 0.71100003 -0.038645219 1.1807917e-38 336 271
0.021252153 0.713 -0.038753927 1.2268894e-38 337 271
0.022533838 0.71399999 -0.038808275 1.5122617e-38 338 271
0.023952285 0.71899998 -0.039080046 2.0562518e-38 339 271
0.025212931 0.71899998 -0.039080046 2.2311345e-38 340 271
-0.040677335 0.72500002 -0.040677335 2.2864166e-38 288 272
-0.039134402 0.72000003 -0.040396802 2.1757818e-38 289 272
-0.037661601 0.71600002 -0.040172372 1.8072881e-38 290 272
-0.036304519 0.71399999 -0.040060159 1.659775e-38 291 272
-0.035003547 0.713 -0.040004052 1.6507006e-38 292 272
-0.033611398 0.70999998 -0.039835732 1.5953832e-38 293 272
-0.03227536 0.708 -0.039723519 1.5493943e-38 294 272
-0.030990168 0.70700002 -0.039667413 1.512516e-38 295 272
-0.029708479 0.70599997 -0.039611302 1.3103346e-38 296 272
-0.028389972 0.704 -0.039499093 1.3287737e-38 297 272
-0.027155625 0.704 -0.039499093 1.503658e-38 298 272
-0.025884461 0.70300001 -0.039442986 1.6235123e-38 299 272
-0.024651866 0.70300001 -0.039442986 1.6142559e-38 300 272
-0.023352645 0.70099998 -0.039330769 1.5865612e-38 301 272
-0.022123558 0.70099998 -0.039330769 1.5683021e-38 302 272
-0.020894472 0.70099998 -0.039330769 1.5775218e-38 303 272
-0.019665385 0.70099998 -0.039330769 1.4393013e-38 304 272
-0.018436298 0.70099998 -0.039330769 1.2733131e-38 305 272
-0.017182667 0.69999999 -0.039274666 1.1626791e-38 306 272
-0.015955333 0.69999999 -0.039274666 1.2732778e-38 307 272
-0.01468592 0.69800001 -0.039162453 1.3745494e-38 308 272
-0.013462093 0.69800001 -0.039162453 1.3560744e-38 309 272
-0.012238266 0.69800001 -0.039162453 1.2917176e-38 310 272
-0.01101444 0.69800001 -0.039162453 1.2824979e-38 311 272
-0.0097906133 0.69800001 -0.039162453 1.2823904e-38 312 272
-0.0085667865 0.69800001 -0.039162453 1.2639513e-38 313 272
-0.0073429602 0.69800001 -0.039162453 1.2272526e-38 314 272
-0.006119133 0.69800001 -0.039162453 1.1996298e-38 315 272
-0.0049093333 0.69999999 -0.039274666 1.2364358e-38 316 272
-0.0036714801 0.69800001 -0.039162453 1.2364358e-38 317 272
-0.0024476533 0.69800001 -0.039162453 1.2272156e-38 318 272
-0.0012238267 0.69800001 -0.039162453 1.2272156e-38 319 272
0 0.69800001 -0.039162453 1.2731333e-38 320 272
0.0012238267 0.69800001 -0.039162453 1.2823529e-38 321 272
0.0024476533 0.69800001 -0.039162453 1.2915006e-38 322 272
0.0036714801 0.69800001 -0.039162453 1.2730613e-38 323 272
0.0049093333 0.69999999 -0.039274666 1.273025e-38 324 272
0.0061366665 0.69999999 -0.039274666 1.1900131e-38 325 272
0.0073745195 0.70099998 -0.039330769 1.2266042e-38 326 272
0.0086036054 0.70099998 -0.039330769 1.1344087e-38 327 272
0.0098607466 0.70300001 -0.039442986 7.8561234e-39 328 272
0.011109119 0.704 -0.039499093 7.6717321e-39 329 272
0.012343466 0.704 -0.039499093 9.0525016e-39 330 272
0.013616386 0.70599997 -0.039611302 1.1080805e-38 331 272
0.01487528 0.70700002 -0.039667413 1.3186907e-38 332 272
0.01613768 0.708 -0.039723519 1.2449342e-38 333 272
0.017428132 0.70999998 -0.039835732 1.2266026e-38 334 272
0.0186993 0.71100003 -0.039891839 1.2634449e-38 335 272
0.020002026 0.713 -0.040004052 1.2544038e-38 336 272
0.021341572 0.71600002 -0.040172372 1.3189408e-38 337 272
0.02262852 0.71700001 -0.040228479 1.5491762e-38 338 272
0.02388566 0.71700001 -0.040228479 2.0746913e-38 339 272
0.0251428 0.71700001 -0.040228479 2.2403544e-38 340 272
-0.040396802 0.72000003 -0.041659199 2.2680854e-38 288 273
-0.039134402 0.72000003 -0.041659199 2.1574146e-38 289 273
-0.037661601 0.71600002 -0.041427758 1.7059454e-38 290 273
-0.036304519 0.71399999 -0.041312039 1.5123346e-38 291 273
-0.035003547 0.713 -0.041254178 1.5403179e-38 292 273
-0.033658739 0.71100003 -0.041138459 1.5771602e-38 293 273
-0.032366529 0.70999998 -0.041080594 1.5679406e-38 294 273
-0.031034 0.708 -0.040964879 1.5310625e-38 295 273
-0.029750559 0.70700002 -0.040907022 1.43894e-38 296 273
-0.028470624 0.70599997 -0.040849157 1.3836226e-38 297 273
-0.027155625 0.704 -0.040733438 1.3102627e-38 298 273
-0.025884461 0.70300001 -0.040675577 1.5407158e-38 299 273
-0.024651866 0.70300001 -0.040675577 1.6512419e-38 300 273
-0.023419274 0.70300001 -0.040675577 1.586705e-38 301 273
-0.022123558 0.70099998 -0.040559858 1.5867414e-38 302 273
-0.020894472 0.70099998 -0.040559858 1.595961e-38 303 273
-0.019721493 0.70300001 -0.040675577 1.457777e-38 304 273
-0.018436298 0.70099998 -0.040559858 1.2272879e-38 305 273
-0.017207211 0.70099998 -0.040559858 1.0796675e-38 306 273
-0.015955333 0.69999999 -0.040502001 1.217961e-38 307 273
-0.014727999 0.69999999 -0.040502001 1.4294349e-38 308 273
-0.013500666 0.69999999 -0.040502001 1.4294349e-38 309 273
-0.012238266 0.69800001 -0.040386278 1.4111399e-38 310 273
-0.01101444 0.69800001 -0.040386278 1.429579e-38 311 273
-0.0097906133 0.69800001 -0.040386278 1.3471795e-38 312 273
-0.0085667865 0.69800001 -0.040386278 1.356399e-38 313 273
-0.0073429602 0.69800001 -0.040386278 1.4021366e-38 314 273
-0.0061366665 0.69999999 -0.040502001 1.2915377e-38 315 273
-0.0049093333 0.69999999 -0.040502001 1.3742974e-38 316 273
-0.0036819996 0.69999999 -0.040502001 1.383517e-38 317 273
-0.0024546667 0.69999999 -0.040502001 1.2546952e-38 318 273
-0.0012273333 0.69999999 -0.040502001 1.1901582e-38 319 273
0 0.69999999 -0.040502001 1.0247113e-38 320 273
0.0012273333 0.69999999 -0.040502001 1.0523698e-38 321 273
0.0024546667 0.69999999 -0.040502001 1.0617323e-38 322 273
0.0036819996 0.69999999 -0.040502001 1.0248541e-38 323 273
0.0049093333 0.69999999 -0.040502001 1.171609e-38 324 273
0.0061454331 0.70099998 -0.040559858 1.1162916e-38 325 273
0.0073745195 0.70099998 -0.040559858 1.1346584e-38 326 273
0.0086281532 0.70300001 -0.040675577 1.0517184e-38 327 273
0.0098607466 0.70300001 -0.040675577 7.4841109e-39 328 273
0.011109119 0.704 -0.040733438 7.5766653e-39 329 273
0.012378532 0.70599997 -0.040849157 9.601372e-39 330 273
0.013616386 0.70599997 -0.040849157 1.1721873e-38 331 273
0.01487528 0.70700002 -0.040907022 1.2451858e-38 332 273
0.01613768 0.708 -0.040964879 1.1622458e-38 333 273
0.017428132 0.70999998 -0.041080594 1.1991954e-38 334 273
0.018751899 0.713 -0.041254178 1.226854e-38 335 273
0.020030079 0.71399999 -0.041312039 1.3189052e-38 336 273
0.021371379 0.71700001 -0.041485619 1.3742226e-38 337 273
0.02262852 0.71700001 -0.041485619 1.5677235e-38 338 273
0.02388566 0.71700001 -0.041485619 2.0563964e-38 339 273
0.025212931 0.71899998 -0.041601337 2.2495736e-38 340 273
-0.040396802 0.72000003 -0.042921603 2.2588655e-38 288 274
-0.039080046 0.71899998 -0.042861983 2.185109e-38 289 274
-0.037661601 0.71600002 -0.042683143 1.6599199e-38 290 274
-0.036304519 0.71399999 -0.042563915 1.3095763e-38 291 274
-0.035052639 0.71399999 -0.042563915 1.2827832e-38 292 274
-0.033753417 0.713 -0.042504307 1.3934178e-38 293 274
-0.032412119 0.71100003 -0.042385083 1.6232958e-38 294 274
-0.031121666 0.70999998 -0.042325463 1.6785773e-38 295 274
-0.02979264 0.708 -0.042206239 1.6784328e-38 296 274
-0.028470624 0.70599997 -0.042087011 1.549359e-38 297 274
-0.027232772 0.70599997 -0.042087011 1.4300084e-38 298 274
-0.02592128 0.704 -0.041967787 1.5590823e-38 299 274
-0.024686933 0.704 -0.041967787 1.605253e-38 300 274
-0.023419274 0.70300001 -0.041908171 1.5683749e-38 301 274
-0.02218668 0.70300001 -0.041908171 1.5683749e-38 302 274
-0.020954086 0.70300001 -0.041908171 1.5959975e-38 303 274
-0.019721493 0.70300001 -0.041908171 1.4761801e-38 304 274
-0.018488899 0.70300001 -0.041908171 1.1350923e-38 305 274
-0.017207211 0.70099998 -0.041788943 1.0047955e-38 306 274
-0.015978126 0.70099998 -0.041788943 1.0693324e-38 307 274
-0.014727999 0.69999999 -0.041729331 1.0969915e-38 308 274
-0.013500666 0.69999999 -0.041729331 1.0785522e-38 309 274
-0.012273333 0.69999999 -0.041729331 1.0788413e-38 310 274
-0.01101444 0.69800001 -0.041610107 1.1525978e-38 311 274
-0.0097906133 0.69800001 -0.041610107 8.6866043e-39 312 274
-0.0085667865 0.69800001 -0.041610107 1.1268082e-38 313 274
-0.0073429602 0.69800001 -0.041610107 1.3742594e-38 314 274
-0.0061366665 0.69999999 -0.041729331 1.088489e-38 315 274
-0.0049093333 0.69999999 -0.041729331 1.1250798e-38 316 274
-0.0036819996 0.69999999 -0.041729331 1.1896168e-38 317 274
-0.0024546667 0.69999999 -0.041729331 1.1440247e-38 318 274
-0.0012273333 0.69999999 -0.041729331 1.0887073e-38 319 274
0 0.69999999 -0.041729331 2.4310118e-39 320 274
0.0012273333 0.69999999 -0.041729331 1.140273e-39 321 274
0.0024546667 0.69999999 -0.041729331 4.2570046e-41 322 274
0.0036872597 0.70099998 -0.041788943 5.9610396e-40 323 274
0.0049163462 0.70099998 -0.041788943 9.5045114e-39 324 274
0.0061629666 0.70300001 -0.041908171 1.0518663e-38 325 274
0.0073955595 0.70300001 -0.041908171 1.1347679e-38 326 274
0.0086281532 0.70300001 -0.041908171 1.1808657e-38 327 274
0.0098747732 0.704 -0.041967787 1.2268912e-38 328 274
0.011109119 0.704 -0.041967787 1.2361109e-38 329 274
0.012378532 0.70599997 -0.042087011 1.2911759e-38 330 274
0.013616386 0.70599997 -0.042087011 1.2819563e-38 331 274
0.01487528 0.70700002 -0.042146627 1.2267824e-38 332 274
0.01613768 0.708 -0.042206239 1.2083433e-38 333 274
0.01745268 0.71100003 -0.042385083 1.2175626e-38 334 274
0.018751899 0.713 -0.042504307 1.2544407e-38 335 274
0.020030079 0.71399999 -0.042563915 1.2912465e-38 336 274
0.021371379 0.71700001 -0.042742759 1.365003e-38 337 274
0.02262852 0.71700001 -0.042742759 1.5676519e-38 338 274
0.02388566 0.71700001 -0.042742759 2.0655083e-38 339 274
0.025212931 0.71899998 -0.042861983 2.2679416e-38 340 274
-0.040396802 0.72000003 -0.044183999 2.2680848e-38 288 275
-0.039080046 0.71899998 -0.044122629 2.2312064e-38 289 275
-0.037661601 0.71600002 -0.043938532 1.7150573e-38 290 275
-0.036304519 0.71399999 -0.043815799 1.2725183e-38 291 275
-0.035052639 0.71399999 -0.043815799 1.0248169e-38 292 275
-0.033753417 0.713 -0.043754432 1.1907689e-38 293 275
-0.032503292 0.713 -0.043754432 1.5957107e-38 294 275
-0.031165501 0.71100003 -0.043631699 1.7247846e-38 295 275
-0.029876797 0.70999998 -0.043570329 1.7706643e-38 296 275
-0.028510952 0.70700002 -0.043386232 1.696872e-38 297 275
-0.027232772 0.70599997 -0.043324865 1.604964e-38 298 275
-0.02592128 0.704 -0.043202132 1.6418423e-38 299 275
-0.024686933 0.704 -0.043202132 1.6235839e-38 300 275
-0.023419274 0.70300001 -0.043140765 1.5959612e-38 301 275
-0.02218668 0.70300001 -0.043140765 1.6142572e-38 302 275
-0.020954086 0.70300001 -0.043140765 1.6234767e-38 303 275
-0.019749546 0.704 -0.043202132 1.494583e-38 304 275
-0.018488899 0.70300001 -0.043140765 1.2548384e-38 305 275
-0.017256306 0.70300001 -0.043140765 1.0890293e-38 306 275
-0.015978126 0.70099998 -0.043018032 1.0613708e-38 307 275
-0.014749039 0.70099998 -0.043018032 1.1159694e-38 308 275
-0.013500666 0.69999999 -0.042956665 1.0975303e-38 309 275
-0.012273333 0.69999999 -0.042956665 9.8732911e-39 310 275
-0.011045999 0.69999999 -0.042956665 9.412313e-39 311 275
-0.0098186666 0.69999999 -0.042956665 6.5689775e-39 312 275
-0.0085913334 0.69999999 -0.042956665 1.053339e-38 313 275
-0.0073639993 0.69999999 -0.042956665 1.3742582e-38 314 275
-0.0061366665 0.69999999 -0.042956665 1.060793e-38 315 275
-0.0049093333 0.69999999 -0.042956665 9.6870628e-39 316 275
-0.0036819996 0.69999999 -0.042956665 1.0332432e-38 317 275
-0.0024546667 0.69999999 -0.042956665 1.107218e-38 318 275
-0.0012273333 0.69999999 -0.042956665 1.1533519e-38 319 275
0 0.70099998 -0.043018032 7.8550696e-39 320 275
0.0012290865 0.70099998 -0.043018032 5.5498201e-39 321 275
0.0024581731 0.70099998 -0.043018032 4.5432296e-39 322 275
0.0036977797 0.70300001 -0.043140765 6.4793379e-39 323 275
0.0049303733 0.70300001 -0.043140765 1.2084897e-38 324 275
0.0061629666 0.70300001 -0.043140765 1.2084897e-38 325 275
0.0073955595 0.70300001 -0.043140765 1.1992329e-38 326 275
0.0086404262 0.704 -0.043202132 1.2268556e-38 327 275
0.0098747732 0.704 -0.043202132 1.2821011e-38 328 275
0.011109119 0.704 -0.043202132 1.2360033e-38 329 275
0.012378532 0.70599997 -0.043324865 1.2543698e-38 330 275
0.013635674 0.70700002 -0.043386232 1.2267471e-38 331 275
0.01489632 0.708 -0.043447599 1.1808285e-38 332 275
0.01620606 0.71100003 -0.043631699 1.171609e-38 333 275
0.017501773 0.713 -0.043754432 1.2084149e-38 334 275
0.018778199 0.71399999 -0.043815799 1.2360736e-38 335 275
0.020086186 0.71600002 -0.043938532 1.3095058e-38 336 275
0.021371379 0.71700001 -0.043999899 1.3648231e-38 337 275
0.02262852 0.71700001 -0.043999899 1.5399932e-38 338 275
0.023952285 0.71899998 -0.044122629 2.0470693e-38 339 275
0.025212931 0.71899998 -0.044122629 2.2679416e-38 340 275
-0.040340692 0.71899998 -0.045383278 2.304891e-38 288 276
-0.038971342 0.71700001 -0.045257039 2.2771965e-38 289 276
-0.037661601 0.71600002 -0.045193922 1.7978886e-38 290 276
-0.036304519 0.71399999 -0.045067675 1.364605e-38 291 276
-0.035052639 0.71399999 -0.045067675 7.2071541e-39 292 276
-0.033753417 0.713 -0.045004558 6.746536e-39 293 276
-0.032503292 0.713 -0.045004558 1.3469996e-38 294 276
-0.031253166 0.713 -0.045004558 1.5682692e-38 295 276
-0.029876797 0.70999998 -0.044815198 1.7340032e-38 296 276
-0.02855128 0.708 -0.044688959 1.7247477e-38 297 276
-0.027232772 0.70599997 -0.044562716 1.706272e-38 298 276
-0.02592128 0.704 -0.044436477 1.6878328e-38 299 276
-0.024686933 0.704 -0.044436477 1.6235123e-38 300 276
-0.023452586 0.704 -0.044436477 1.6235123e-38 301 276
-0.02218668 0.70300001 -0.04437336 1.6142574e-38 302 276
-0.020954086 0.70300001 -0.04437336 1.6050379e-38 303 276
-0.019749546 0.704 -0.044436477 1.5037302e-38 304 276
-0.018515198 0.704 -0.044436477 1.383876e-38 305 276
-0.017256306 0.70300001 -0.04437336 1.3470696e-38 306 276
-0.016023712 0.70300001 -0.04437336 1.3470696e-38 307 276
-0.014749039 0.70099998 -0.044247117 1.383517e-38 308 276
-0.013519952 0.70099998 -0.044247117 1.4111396e-38 309 276
-0.012273333 0.69999999 -0.044183996 1.3100489e-38 310 276
-0.011045999 0.69999999 -0.044183996 1.2732065e-38 311 276
-0.0098186666 0.69999999 -0.044183996 1.2550187e-38 312 276
-0.0085913334 0.69999999 -0.044183996 1.3103361e-38 313 276
-0.0073639993 0.69999999 -0.044183996 1.3652573e-38 314 276
-0.0061366665 0.69999999 -0.044183996 1.2361835e-38 315 276
-0.0049093333 0.69999999 -0.044183996 1.1807948e-38 316 276
-0.0036819996 0.69999999 -0.044183996 1.1807948e-38 317 276
-0.0024546667 0.69999999 -0.044183996 1.2179244e-38 318 276
-0.0012290865 0.70099998 -0.044247117 1.2547668e-38 319 276
0 0.70300001 -0.04437336 1.2364353e-38 320 276
0.0012325933 0.70300001 -0.04437336 1.2548384e-38 321 276
0.0024651866 0.70300001 -0.04437336 1.282281e-38 322 276
0.0036977797 0.70300001 -0.04437336 1.3191591e-38 323 276
0.0049303733 0.70300001 -0.04437336 1.2637698e-38 324 276
0.0061717331 0.704 -0.044436477 1.2545503e-38 325 276
0.0074060797 0.704 -0.044436477 1.2452951e-38 326 276
0.0086404262 0.704 -0.044436477 1.2268559e-38 327 276
0.0098747732 0.704 -0.044436477 1.2360389e-38 328 276
0.011140679 0.70599997 -0.044562716 1.2175997e-38 329 276
0.012378532 0.70599997 -0.044562716 1.1992679e-38 330 276
0.013635674 0.70700002 -0.044625837 1.1992679e-38 331 276
0.014938398 0.70999998 -0.044815198 1.1900481e-38 332 276
0.01620606 0.71100003 -0.044878319 1.171609e-38 333 276
0.017501773 0.713 -0.045004558 1.1900837e-38 334 276
0.018778199 0.71399999 -0.045067675 1.2361456e-38 335 276
0.020086186 0.71600002 -0.045193922 1.3279453e-38 336 276
0.021371379 0.71700001 -0.045257039 1.3832626e-38 337 276
0.02262852 0.71700001 -0.045257039 1.5216261e-38 338 276
0.02388566 0.71700001 -0.045257039 2.0194824e-38 339 276
0.0251428 0.71700001 -0.045257039 2.2403188e-38 340 276
-0.040340692 0.71899998 -0.046643924 2.3141106e-38 288 277
-0.038971342 0.71700001 -0.046514176 2.304891e-38 289 277
-0.037661601 0.71600002 -0.046449307 1.8899401e-38 290 277
-0.036304519 0.71399999 -0.046319555 1.4842793e-38 291 277
-0.035052639 0.71399999 -0.046319555 9.7789151e-39 292 277
-0.033800758 0.71399999 -0.046319555 6.0907298e-39 293 277
-0.032548878 0.71399999 -0.046319555 3.520796e-39 294 277
-0.031296998 0.71399999 -0.046319555 8.0383819e-39 295 277
-0.029876797 0.70999998 -0.046060063 1.3380321e-38 296 277
-0.02855128 0.708 -0.045930319 1.5593016e-38 297 277
-0.027271347 0.70700002 -0.045865446 1.7155284e-38 298 277
-0.025994917 0.70599997 -0.04580057 1.6694306e-38 299 277
-0.024686933 0.704 -0.045670826 1.6235123e-38 300 277
-0.023452586 0.704 -0.045670826 1.6235123e-38 301 277
-0.022218239 0.704 -0.045670826 1.5959262e-38 302 277
-0.020983893 0.704 -0.045670826 1.5959262e-38 303 277
-0.019749546 0.704 -0.045670826 1.4854356e-38 304 277
-0.018515198 0.704 -0.045670826 1.3194835e-38 305 277
-0.017280852 0.704 -0.045670826 1.172115e-38 306 277
-0.016023712 0.70300001 -0.04560595 1.2274324e-38 307 277
-0.014791119 0.70300001 -0.04560595 1.2181056e-38 308 277
-0.013519952 0.70099998 -0.045476202 1.2549837e-38 309 277
-0.012290866 0.70099998 -0.045476202 1.2365816e-38 310 277
-0.011061779 0.70099998 -0.045476202 1.2181424e-38 311 277
-0.0098326923 0.70099998 -0.045476202 1.1998112e-38 312 277
-0.0086036054 0.70099998 -0.045476202 1.1075797e-38 313 277
-0.0073745195 0.70099998 -0.045476202 1.1814434e-38 314 277
-0.0061454331 0.70099998 -0.045476202 1.209138e-38 315 277
-0.0049093333 0.69999999 -0.04541133 1.1626806e-38 316 277
-0.0036819996 0.69999999 -0.04541133 1.1073632e-38 317 277
-0.0024581731 0.70099998 -0.045476202 1.11669e-38 318 277
-0.0012290865 0.70099998 -0.045476202 1.1351292e-38 319 277
0 0.70300001 -0.04560595 1.2362556e-38 320 277
0.0012325933 0.70300001 -0.04560595 1.291573e-38 321 277
0.0024651866 0.70300001 -0.04560595 1.2731333e-38 322 277
0.0037030398 0.704 -0.045670826 1.2731333e-38 323 277
0.0049373866 0.704 -0.045670826 1.2087043e-38 324 277
0.0061717331 0.704 -0.045670826 1.2548021e-38 325 277
0.0074060797 0.704 -0.045670826 1.2821014e-38 326 277
0.0086404262 0.704 -0.045670826 1.1990894e-38 327 277
0.0099028256 0.70599997 -0.04580057 1.2085961e-38 328 277
0.011140679 0.70599997 -0.04580057 1.2085961e-38 329 277
0.012396066 0.70700002 -0.045865446 1.1902279e-38 330 277
0.013654959 0.708 -0.045930319 1.1902279e-38 331 277
0.014938398 0.70999998 -0.046060063 1.1718244e-38 332 277
0.01620606 0.71100003 -0.046124939 1.1718244e-38 333 277
0.017501773 0.713 -0.046254687 1.1810436e-38 334 277
0.0188308 0.71600002 -0.046449307 1.2179219e-38 335 277
0.020086186 0.71600002 -0.046449307 1.2913547e-38 336 277
0.021371379 0.71700001 -0.046514176 1.3281971e-38 337 277
0.02262852 0.71700001 -0.046514176 1.5215543e-38 338 277
0.02388566 0.71700001 -0.046514176 2.010191e-38 339 277
0.0251428 0.71700001 -0.046514176 2.185109e-38 340 277
-0.040340692 0.71899998 -0.04790457 2.304891e-38 288 278
-0.038971342 0.71700001 -0.04777132 2.3141106e-38 289 278
-0.037661601 0.71600002 -0.047704693 1.9637319e-38 290 278
-0.036406212 0.71600002 -0.047704693 1.5765102e-38 291 278
-0.035052639 0.71399999 -0.047571439 1.2078747e-38 292 278
-0.033800758 0.71399999 -0.047571439 7.7451938e-39 293 278
-0.032548878 0.71399999 -0.047571439 1.0881083e-41 294 278
-0.031296998 0.71399999 -0.047571439 9.3931979e-40 295 278
-0.030003037 0.713 -0.047504812 6.1984364e-39 296 278
-0.028631933 0.70999998 -0.047304932 1.1914564e-38 297 278
-0.027309919 0.708 -0.047171678 1.6880142e-38 298 278
-0.026068559 0.708 -0.047171678 1.6326968e-38 299 278
-0.024757065 0.70599997 -0.047038425 1.6051811e-38 300 278
-0.023452586 0.704 -0.046905171 1.6051811e-38 301 278
-0.022218239 0.704 -0.046905171 1.6051458e-38 302 278
-0.020983893 0.704 -0.046905171 1.6235489e-38 303 278
-0.019749546 0.704 -0.046905171 1.4854001e-38 304 278
-0.018515198 0.704 -0.046905171 1.3563262e-38 305 278
-0.017280852 0.704 -0.046905171 1.1997381e-38 306 278
-0.016023712 0.70300001 -0.046838548 1.2366522e-38 307 278
-0.014791119 0.70300001 -0.046838548 1.217998e-38 308 278
-0.013558527 0.70300001 -0.046838548 1.2272175e-38 309 278
-0.012290866 0.70099998 -0.046705291 1.163005e-38 310 278
-0.011061779 0.70099998 -0.046705291 1.163005e-38 311 278
-0.0098326923 0.70099998 -0.046705291 1.1997033e-38 312 278
-0.0086036054 0.70099998 -0.046705291 1.1075077e-38 313 278
-0.0073745195 0.70099998 -0.046705291 1.1446731e-38 314 278
-0.0061454331 0.70099998 -0.046705291 1.1815513e-38 315 278
-0.0049163462 0.70099998 -0.046705291 1.0985037e-38 316 278
-0.0036872597 0.70099998 -0.046705291 1.0523698e-38 317 278
-0.0024651866 0.70300001 -0.046838548 1.0339311e-38 318 278
-0.0012325933 0.70300001 -0.046838548 1.0523342e-38 319 278
0 0.70300001 -0.046838548 1.0339664e-38 320 278
0.0012343467 0.704 -0.046905171 1.144601e-38 321 278
0.0024686933 0.704 -0.046905171 1.2272523e-38 322 278
0.0037030398 0.704 -0.046905171 1.2272523e-38 323 278
0.0049373866 0.704 -0.046905171 1.2455471e-38 324 278
0.0061892662 0.70599997 -0.047038425 1.2363275e-38 325 278
0.0074271196 0.70599997 -0.047038425 1.217709e-38 326 278
0.0086649731 0.70599997 -0.047038425 1.1623916e-38 327 278
0.0099028256 0.70599997 -0.047038425 1.1535314e-38 328 278
0.011140679 0.70599997 -0.047038425 1.1350923e-38 329 278
0.012396066 0.70700002 -0.047105055 1.1260152e-38 330 278
0.013654959 0.708 -0.047171678 1.153674e-38 331 278
0.014938398 0.70999998 -0.047304932 1.1902284e-38 332 278
0.01620606 0.71100003 -0.047371563 1.1717534e-38 333 278
0.017526319 0.71399999 -0.047571439 1.2086317e-38 334 278
0.0188308 0.71600002 -0.047704693 1.2178513e-38 335 278
0.020086186 0.71600002 -0.047704693 1.2821351e-38 336 278
0.021371379 0.71700001 -0.04777132 1.3097578e-38 337 278
0.02262852 0.71700001 -0.04777132 1.5214815e-38 338 278
0.02388566 0.71700001 -0.04777132 2.0008989e-38 339 278
-0.039080046 0.71899998 -0.049165215 2.2956715e-38 289 279
-0.037714198 0.71700001 -0.04902846 2.0467082e-38 290 279
-0.036406212 0.71600002 -0.048960082 1.7608659e-38 291 279
-0.035150826 0.71600002 -0.048960082 1.3552427e-38 292 279
-0.03389544 0.71600002 -0.048960082 9.3114279e-39 293 279
-0.032640055 0.71600002 -0.048960082 2.2156448e-39 294 279
-0.031384666 0.71600002 -0.048960082 2.4000375e-39 295 279
-0.030045118 0.71399999 -0.048823316 2.3475953e-41 296 279
-0.028752912 0.713 -0.048754938 7.6778754e-39 297 279
-0.027387066 0.70999998 -0.048549797 1.605147e-38 298 279
-0.026142199 0.70999998 -0.048549797 1.6236222e-38 299 279
-0.024792133 0.70700002 -0.048344657 1.5776669e-38 300 279
-0.023519212 0.70599997 -0.048276275 1.5776669e-38 301 279
-0.022218239 0.704 -0.048139516 1.5776669e-38 302 279
-0.020983893 0.704 -0.048139516 1.5868864e-38 303 279
-0.019749546 0.704 -0.048139516 1.4945833e-38 304 279
-0.018515198 0.704 -0.048139516 1.3931321e-38 305 279
-0.017280852 0.704 -0.048139516 1.3101568e-38 306 279
-0.016046507 0.704 -0.048139516 1.2917176e-38 307 279
-0.014812159 0.704 -0.048139516 1.2823907e-38 308 279
-0.013558527 0.70300001 -0.048071139 1.3284885e-38 309 279
-0.012325933 0.70300001 -0.048071139 1.2641678e-38 310 279
-0.011061779 0.70099998 -0.047934376 1.2457286e-38 311 279
-0.0098326923 0.70099998 -0.047934376 1.2090661e-38 312 279
-0.0086036054 0.70099998 -0.047934376 1.1905911e-38 313 279
-0.0073745195 0.70099998 -0.047934376 1.1997028e-38 314 279
-0.0061454331 0.70099998 -0.047934376 1.2181778e-38 315 279
-0.0049163462 0.70099998 -0.047934376 9.9730454e-39 316 279
-0.0036872597 0.70099998 -0.047934376 8.8666978e-39 317 279
-0.0024651866 0.70300001 -0.048071139 9.8769065e-39 318 279
-0.0012343467 0.704 -0.048139516 9.9691021e-39 319 279
0 0.704 -0.048139516 6.7551961e-39 320 279
0.0012343467 0.704 -0.048139516 8.6913043e-39 321 279
0.0024757064 0.70599997 -0.048276275 1.2181775e-38 322 279
0.0037135598 0.70599997 -0.048276275 1.227397e-38 323 279
0.0049514128 0.70599997 -0.048276275 1.2823179e-38 324 279
0.0061892662 0.70599997 -0.048276275 1.1440244e-38 325 279
0.0074271196 0.70599997 -0.048276275 9.6935676e-39 326 279
0.0086649731 0.70599997 -0.048276275 9.9701559e-39 327 279
0.0099028256 0.70599997 -0.048276275 1.0796319e-38 328 279
0.011156459 0.70700002 -0.048344657 1.0427897e-38 329 279
0.012396066 0.70700002 -0.048344657 1.0524755e-38 330 279
0.013693533 0.70999998 -0.048549797 1.126232e-38 331 279
0.014959441 0.71100003 -0.048618179 1.2361109e-38 332 279
0.016251646 0.713 -0.048754938 1.2084881e-38 333 279
0.017575413 0.71600002 -0.048960082 1.2360742e-38 334 279
0.0188308 0.71600002 -0.048960082 1.2452939e-38 335 279
0.020114239 0.71700001 -0.04902846 1.2636237e-38 336 279
0.021371379 0.71700001 -0.04902846 1.3281606e-38 337 279
0.02262852 0.71700001 -0.04902846 1.5582523e-38 338 279
0.02388566 0.71700001 -0.04902846 1.9823881e-38 339 279
-0.037714198 0.71700001 -0.0502856 2.0744755e-38 290 280
-0.036406212 0.71600002 -0.050215468 1.8808647e-38 291 280
-0.035150826 0.71600002 -0.050215468 1.6225725e-38 292 280
-0.03389544 0.71600002 -0.050215468 1.2630454e-38 293 280
-0.032640055 0.71600002 -0.050215468 8.7517857e-39 294 280
-0.031384666 0.71600002 -0.050215468 3.7732231e-39 295 280
-0.030045118 0.71399999 -0.050075196 6.1657132e-44 296 280
-0.028752912 0.713 -0.050005067 8.5757028e-39 297 280
-0.027425639 0.71100003 -0.049864799 1.6141853e-38 298 280
-0.026142199 0.70999998 -0.049794663 1.7063808e-38 299 280
-0.024827199 0.708 -0.049654398 1.5867783e-38 300 280
-0.023552528 0.70700002 -0.049584266 1.5959978e-38 301 280
-0.022281358 0.70599997 -0.04951413 1.6051458e-38 302 280
-0.021043506 0.70599997 -0.04951413 1.6235489e-38 303 280
-0.019805651 0.70599997 -0.04951413 1.5038029e-38 304 280
-0.018567799 0.70599997 -0.04951413 1.374729e-38 305 280
-0.017329946 0.70599997 -0.04951413 1.218033e-38 306 280
-0.016046507 0.704 -0.049373865 1.2641667e-38 307 280
-0.014812159 0.704 -0.049373865 1.2549834e-38 308 280
-0.013577812 0.704 -0.049373865 1.2734227e-38 309 280
-0.012325933 0.70300001 -0.049303733 1.2551634e-38 310 280
-0.01109334 0.70300001 -0.049303733 1.2367242e-38 311 280
-0.0098607466 0.70300001 -0.049303733 1.2917898e-38 312 280
-0.0086281532 0.70300001 -0.049303733 1.2825344e-38 313 280
-0.0073955595 0.70300001 -0.049303733 1.2086339e-38 314 280
-0.0061629666 0.70300001 -0.049303733 1.2455122e-38 315 280
-0.0049303733 0.70300001 -0.049303733 1.2364358e-38 316 280
-0.0036977797 0.70300001 -0.049303733 1.1534238e-38 317 280
-0.0024686933 0.704 -0.049373865 1.1534238e-38 318 280
-0.0012343467 0.704 -0.049373865 1.190302e-38 319 280
0 0.704 -0.049373865 1.1076148e-38 320 280
0.0012378532 0.70599997 -0.04951413 1.1168702e-38 321 280
0.0024757064 0.70599997 -0.04951413 1.1446731e-38 322 280
0.0037135598 0.70599997 -0.04951413 1.1723318e-38 323 280
0.0049514128 0.70599997 -0.04951413 1.337635e-38 324 280
0.0061892662 0.70599997 -0.04951413 1.2085611e-38 325 280
0.0074271196 0.70599997 -0.04951413 9.968707e-39 326 280
0.0086649731 0.70599997 -0.04951413 1.0245654e-38 327 280
0.0099168532 0.70700002 -0.049584266 1.0611209e-38 328 280
0.011156459 0.70700002 -0.049584266 1.0795601e-38 329 280
0.012448666 0.70999998 -0.049794663 1.1533869e-38 330 280
0.01371282 0.71100003 -0.049864799 1.2548021e-38 331 280
0.015001519 0.713 -0.050005067 1.254585e-38 332 280
0.016274439 0.71399999 -0.050075196 1.2361459e-38 333 280
0.017575413 0.71600002 -0.050215468 1.2544051e-38 334 280
0.0188308 0.71600002 -0.050215468 1.2544051e-38 335 280
0.020114239 0.71700001 -0.0502856 1.2635881e-38 336 280
0.021371379 0.71700001 -0.0502856 1.3096859e-38 337 280
0.02262852 0.71700001 -0.0502856 1.5308816e-38 338 280
0.02388566 0.71700001 -0.0502856 1.9365423e-38 339 280
-0.036457058 0.71700001 -0.051542737 1.8809366e-38 291 281
-0.035150826 0.71600002 -0.051470853 1.7608662e-38 292 281
-0.03389544 0.71600002 -0.051470853 1.5764749e-38 293 281
-0.032640055 0.71600002 -0.051470853 1.4102351e-38 294 281
-0.031384666 0.71600002 -0.051470853 8.8472001e-39 295 281
-0.030045118 0.71399999 -0.05132708 9.2594159e-40 296 281
-0.028793238 0.71399999 -0.05132708 9.2235483e-39 297 281
-0.027502786 0.713 -0.051255193 1.6050359e-38 298 281
-0.026142199 0.70999998 -0.051039528 1.7064511e-38 299 281
-0.024827199 0.708 -0.050895758 1.5868862e-38 300 281
-0.023552528 0.70700002 -0.050823875 1.5868862e-38 301 281
-0.022312919 0.70700002 -0.050823875 1.5959978e-38 302 281
-0.021043506 0.70599997 -0.050751984 1.6052174e-38 303 281
-0.019805651 0.70599997 -0.050751984 1.5038029e-38 304 281
-0.018567799 0.70599997 -0.050751984 1.3931321e-38 305 281
-0.017329946 0.70599997 -0.050751984 1.0893191e-38 306 281
-0.016046507 0.704 -0.050608214 1.1353809e-38 307 281
-0.014812159 0.704 -0.050608214 1.1353815e-38 308 281
-0.013577812 0.704 -0.050608214 1.1814434e-38 309 281
-0.012343466 0.704 -0.050608214 1.2826781e-38 310 281
-0.011109119 0.704 -0.050608214 1.2826781e-38 311 281
-0.0098747732 0.704 -0.050608214 1.2732428e-38 312 281
-0.0086281532 0.70300001 -0.050536323 1.2640232e-38 313 281
-0.0073955595 0.70300001 -0.050536323 1.2268933e-38 314 281
-0.0061629666 0.70300001 -0.050536323 1.1807953e-38 315 281
-0.0049373866 0.704 -0.050608214 1.3191238e-38 316 281
-0.0037030398 0.704 -0.050608214 1.3928803e-38 317 281
-0.0024686933 0.704 -0.050608214 1.3375632e-38 318 281
-0.0012343467 0.704 -0.050608214 1.2914655e-38 319 281
0 0.704 -0.050608214 1.2178538e-38 320 281
0.0012378532 0.70599997 -0.050751984 1.2086342e-38 321 281
0.0024757064 0.70599997 -0.050751984 1.162932e-38 322 281
0.0037135598 0.70599997 -0.050751984 1.1721517e-38 323 281
