# .PCD v.7 - Point Cloud Data file format
FIELDS x y z rgb imX imY
SIZE 4 4 4 4 4 4
TYPE F F F F F F
COUNT 1 1 1 1 1 1
WIDTH 836
HEIGHT 1
VIEWPOINT 0 0 0 1 0 0 0
POINTS 836
DATA ascii
-0.0073008798 0.69400001 -0.031637147 1.1900502e-38 314 266
-0.0060840664 0.69400001 -0.031637147 1.2361482e-38 315 266
-0.0048672534 0.69400001 -0.031637147 1.2270005e-38 316 266
-0.0036504399 0.69400001 -0.031637147 1.2085614e-38 317 266
-0.0024336267 0.69400001 -0.031637147 1.2177093e-38 318 266
-0.0012168133 0.69400001 -0.031637147 1.2269289e-38 319 266
0 0.69700003 -0.03177391 1.2545871e-38 320 266
0.0012220733 0.69700003 -0.03177391 1.2914655e-38 321 266
0.0024441467 0.69700003 -0.03177391 1.3098671e-38 322 266
0.00366622 0.69700003 -0.03177391 1.2730247e-38 323 266
0.0048882933 0.69700003 -0.03177391 1.281849e-38 324 266
0.0061103669 0.69700003 -0.03177391 1.2357872e-38 325 266
0.0073429602 0.69800001 -0.031819493 9.7857618e-39 326 266
0.0085667865 0.69800001 -0.031819493 1.0523327e-38 327 266
0.0097906133 0.69800001 -0.031819493 1.1257648e-38 328 266
0.01101444 0.69800001 -0.031819493 1.1442039e-38 329 266
0.012273333 0.69999999 -0.031910665 1.2084878e-38 330 266
0.013558527 0.70300001 -0.032047424 1.2084878e-38 331 266
0.014812159 0.704 -0.032093015 1.2268906e-38 332 266
0.016092092 0.70599997 -0.032184184 1.2268906e-38 333 266
0.017329946 0.70599997 -0.032184184 1.2269262e-38 334 266
0.018567799 0.70599997 -0.032184184 1.1993035e-38 335 266
0.019833706 0.70700002 -0.032229774 1.2544404e-38 336 266
0.021103119 0.708 -0.03227536 1.3374166e-38 337 266
0.022407599 0.70999998 -0.032366529 1.4110273e-38 338 266
0.023652466 0.70999998 -0.032366529 1.733712e-38 339 266
0.025002534 0.713 -0.032503292 2.0192288e-38 340 266
0.026252659 0.713 -0.032503292 2.1944005e-38 341 266
-0.039835732 0.70999998 -0.033611398 2.2588655e-38 288 267
-0.038590867 0.70999998 -0.033611398 2.323402e-38 289 267
-0.037345998 0.70999998 -0.033611398 2.0558546e-38 290 267
-0.036101133 0.70999998 -0.033611398 1.5395591e-38 291 267
-0.034758076 0.708 -0.033516716 1.4652628e-38 292 267
-0.033516716 0.708 -0.033516716 1.6127398e-38 293 267
-0.03227536 0.708 -0.033516716 1.6493314e-38 294 267
-0.030990168 0.70700002 -0.033469379 1.4833432e-38 295 267
-0.029708479 0.70599997 -0.033422034 1.5372938e-38 296 267
-0.028389972 0.704 -0.03332736 1.3252798e-38 297 267
-0.027155625 0.704 -0.03332736 1.4162168e-38 298 267
-0.025884461 0.70300001 -0.033280019 1.3793744e-38 299 267
-0.024581732 0.70099998 -0.03318534 1.3421735e-38 300 267
-0.023319334 0.69999999 -0.033137999 1.41593e-38 301 267
-0.022091998 0.69999999 -0.033137999 1.3897462e-38 302 267
-0.020864666 0.69999999 -0.033137999 1.4726864e-38 303 267
-0.019637333 0.69999999 -0.033137999 1.4434442e-38 304 267
-0.0183574 0.69800001 -0.033043321 1.2959312e-38 305 267
-0.017133573 0.69800001 -0.033043321 1.2214201e-38 306 267
-0.015909746 0.69800001 -0.033043321 1.8850493e-38 307 267
-0.01466488 0.69700003 -0.03299598 1.7333189e-38 308 267
-0.013442807 0.69700003 -0.03299598 1.7056602e-38 309 267
-0.0122032 0.69599998 -0.032948639 1.5313893e-38 310 267
-0.010982879 0.69599998 -0.032948639 1.4391576e-38 311 267
-0.0097625591 0.69599998 -0.032948639 1.3284883e-38 312 267
-0.0085422397 0.69599998 -0.032948639 1.1901948e-38 313 267
-0.0073219193 0.69599998 -0.032948639 1.1258377e-38 314 267
-0.0061015999 0.69599998 -0.032948639 1.181155e-38 315 267
-0.0048812795 0.69599998 -0.032948639 1.199486e-38 316 267
-0.0036609597 0.69599998 -0.032948639 1.1626437e-38 317 267
-0.0024406398 0.69599998 -0.032948639 1.1901582e-38 318 267
-0.0012220733 0.69700003 -0.03299598 1.2270005e-38 319 267
0 0.69800001 -0.033043321 1.2545869e-38 320 267
0.0012238267 0.69800001 -0.033043321 1.2361837e-38 321 267
0.0024476533 0.69800001 -0.033043321 1.1719339e-38 322 267
0.0036714801 0.69800001 -0.033043321 1.2087762e-38 323 267
0.0048953067 0.69800001 -0.033043321 1.3924116e-38 324 267
0.006119133 0.69800001 -0.033043321 1.3186551e-38 325 267
0.0073429602 0.69800001 -0.033043321 1.1162934e-38 326 267
0.0085667865 0.69800001 -0.033043321 1.125513e-38 327 267
0.0097906133 0.69800001 -0.033043321 1.1531721e-38 328 267
0.011045999 0.69999999 -0.033137999 1.1807948e-38 329 267
0.012290866 0.70099998 -0.03318534 1.1900852e-38 330 267
0.013558527 0.70300001 -0.033280019 1.1993048e-38 331 267
0.014812159 0.704 -0.03332736 1.2085594e-38 332 267
0.016092092 0.70599997 -0.033422034 1.2085594e-38 333 267
0.017329946 0.70599997 -0.033422034 1.2269262e-38 334 267
0.0186204 0.708 -0.033516716 1.2453655e-38 335 267
0.01986176 0.708 -0.033516716 1.3739708e-38 336 267
0.021162732 0.70999998 -0.033611398 1.4200686e-38 337 267
0.022439159 0.71100003 -0.033658739 1.4016272e-38 338 267
0.023685781 0.71100003 -0.033658739 1.7520066e-38 339 267
0.025002534 0.713 -0.033753417 2.0742942e-38 340 267
-0.038590867 0.70999998 -0.034856264 2.3417333e-38 289 268
-0.037345998 0.70999998 -0.034856264 2.102096e-38 290 268
-0.036101133 0.70999998 -0.034856264 1.6410819e-38 291 268
-0.034856264 0.70999998 -0.034856264 1.5483827e-38 292 268
-0.033611398 0.70999998 -0.034856264 1.6405784e-38 293 268
-0.03227536 0.708 -0.034758076 1.695933e-38 294 268
-0.030990168 0.70700002 -0.034708988 1.4101266e-38 295 268
-0.029708479 0.70599997 -0.034659892 1.3353999e-38 296 268
-0.028389972 0.704 -0.034561705 1.3169249e-38 297 268
-0.027155625 0.704 -0.034561705 1.3068402e-38 298 268
-0.025884461 0.70300001 -0.034512613 1.1316685e-38 299 268
-0.024651866 0.70300001 -0.034512613 1.2595892e-38 300 268
-0.023352645 0.70099998 -0.034414422 1.2043077e-38 301 268
-0.022091998 0.69999999 -0.034365334 1.250191e-38 302 268
-0.020864666 0.69999999 -0.034365334 1.3423507e-38 303 268
-0.019637333 0.69999999 -0.034365334 1.3970576e-38 304 268
-0.018409999 0.69999999 -0.034365334 1.3970576e-38 305 268
-0.017133573 0.69800001 -0.034267146 1.193869e-38 306 268
-0.015909746 0.69800001 -0.034267146 1.8667177e-38 307 268
-0.01468592 0.69800001 -0.034267146 1.70584e-38 308 268
-0.013462093 0.69800001 -0.034267146 1.6966204e-38 309 268
-0.012220734 0.69700003 -0.034218054 1.540681e-38 310 268
-0.01099866 0.69700003 -0.034218054 1.4208267e-38 311 268
-0.0097765867 0.69700003 -0.034218054 1.3102652e-38 312 268
-0.0085422397 0.69599998 -0.034168959 1.1166544e-38 313 268
-0.0073219193 0.69599998 -0.034168959 1.0798124e-38 314 268
-0.0061103669 0.69700003 -0.034218054 1.1443494e-38 315 268
-0.0048882933 0.69700003 -0.034218054 1.1536761e-38 316 268
-0.0036714801 0.69800001 -0.034267146 1.1444207e-38 317 268
-0.0024476533 0.69800001 -0.034267146 1.1719705e-38 318 268
-0.0012238267 0.69800001 -0.034267146 1.1904096e-38 319 268
0 0.69800001 -0.034267146 1.2454752e-38 320 268
0.0012238267 0.69800001 -0.034267146 1.2362556e-38 321 268
0.0024476533 0.69800001 -0.034267146 1.2545866e-38 322 268
0.0036714801 0.69800001 -0.034267146 1.263842e-38 323 268
0.0048953067 0.69800001 -0.034267146 1.3373819e-38 324 268
0.006119133 0.69800001 -0.034267146 1.2912841e-38 325 268
0.0073429602 0.69800001 -0.034267146 1.1807216e-38 326 268
0.0085667865 0.69800001 -0.034267146 1.1991247e-38 327 268
0.0098186666 0.69999999 -0.034365334 1.1259083e-38 328 268
0.011045999 0.69999999 -0.034365334 1.1259083e-38 329 268
0.012325933 0.70300001 -0.034512613 1.1993045e-38 330 268
0.013577812 0.704 -0.034561705 1.1993045e-38 331 268
0.014812159 0.704 -0.034561705 1.2084875e-38 332 268
0.016092092 0.70599997 -0.034659892 1.2084875e-38 333 268
0.017354494 0.70700002 -0.034708988 1.1718253e-38 334 268
0.0186204 0.708 -0.034758076 1.1903005e-38 335 268
0.019917866 0.70999998 -0.034856264 1.3281973e-38 336 268
0.021162732 0.70999998 -0.034856264 1.3097222e-38 337 268
0.022439159 0.71100003 -0.034905359 1.2819887e-38 338 268
0.023685781 0.71100003 -0.034905359 1.7152723e-38 339 268
0.025002534 0.713 -0.035003547 2.0467433e-38 340 268
-0.038808275 0.71399999 -0.036304519 2.3141106e-38 289 269
-0.037398599 0.71100003 -0.036151983 2.1480507e-38 290 269
-0.036151983 0.71100003 -0.036151983 1.7977072e-38 291 269
-0.034856264 0.70999998 -0.036101133 1.6131364e-38 292 269
-0.033611398 0.70999998 -0.036101133 1.705332e-38 293 269
-0.03227536 0.708 -0.03599944 1.7239879e-38 294 269
-0.031034 0.708 -0.03599944 1.4289619e-38 295 269
-0.029750559 0.70700002 -0.035948593 1.2808391e-38 296 269
-0.028470624 0.70599997 -0.035897743 1.4099129e-38 297 269
-0.027155625 0.704 -0.035796054 1.5389868e-38 298 269
-0.02592128 0.704 -0.035796054 1.492925e-38 299 269
-0.024651866 0.70300001 -0.035745207 1.4095154e-38 300 269
-0.023352645 0.70099998 -0.035643511 1.2066491e-38 301 269
-0.022091998 0.69999999 -0.035592664 1.2605979e-38 302 269
-0.020864666 0.69999999 -0.035592664 1.066987e-38 303 269
-0.019637333 0.69999999 -0.035592664 1.2039484e-38 304 269
-0.018409999 0.69999999 -0.035592664 1.2315712e-38 305 269
-0.017133573 0.69800001 -0.035490975 1.102032e-38 306 269
-0.015909746 0.69800001 -0.035490975 1.7748088e-38 307 269
-0.01468592 0.69800001 -0.035490975 1.70584e-38 308 269
-0.013462093 0.69800001 -0.035490975 1.6966204e-38 309 269
-0.012238266 0.69800001 -0.035490975 1.5130946e-38 310 269
-0.01099866 0.69700003 -0.035440128 1.3932403e-38 311 269
-0.0097765867 0.69700003 -0.035440128 1.2827147e-38 312 269
-0.0085545136 0.69700003 -0.035440128 1.0891039e-38 313 269
-0.00733244 0.69700003 -0.035440128 1.162645e-38 314 269
-0.006119133 0.69800001 -0.035490975 1.1903396e-38 315 269
-0.0048953067 0.69800001 -0.035490975 1.162932e-38 316 269
-0.0036714801 0.69800001 -0.035490975 1.162932e-38 317 269
-0.0024476533 0.69800001 -0.035490975 1.1721153e-38 318 269
-0.0012238267 0.69800001 -0.035490975 1.181335e-38 319 269
0 0.69800001 -0.035490975 1.2363275e-38 320 269
0.0012238267 0.69800001 -0.035490975 1.2455471e-38 321 269
0.0024476533 0.69800001 -0.035490975 1.2547665e-38 322 269
0.0036714801 0.69800001 -0.035490975 1.2547665e-38 323 269
0.0048953067 0.69800001 -0.035490975 1.2729894e-38 324 269
0.006119133 0.69800001 -0.035490975 1.2637698e-38 325 269
0.0073639993 0.69999999 -0.035592664 1.2913562e-38 326 269
0.0085913334 0.69999999 -0.035592664 1.2636617e-38 327 269
0.0098186666 0.69999999 -0.035592664 1.1901929e-38 328 269
0.011061779 0.70099998 -0.035643511 1.1809733e-38 329 269
0.012325933 0.70300001 -0.035745207 1.2084881e-38 330 269
0.013616386 0.70599997 -0.035897743 1.2084881e-38 331 269
0.014854239 0.70599997 -0.035897743 1.2544051e-38 332 269
0.016114887 0.70700002 -0.035948593 1.2636248e-38 333 269
0.017379038 0.708 -0.03599944 1.0797726e-38 334 269
0.018672999 0.70999998 -0.036101133 1.0337107e-38 335 269
0.019917866 0.70999998 -0.036101133 1.2454011e-38 336 269
0.021192541 0.71100003 -0.036151983 1.2361456e-38 337 269
0.022439159 0.71100003 -0.036151983 1.2267799e-38 338 269
0.023752406 0.713 -0.036253672 1.7061972e-38 339 269
0.025002534 0.713 -0.036253672 2.0560351e-38 340 269
0.026252659 0.713 -0.036253672 2.2035481e-38 341 269
-0.038808275 0.71399999 -0.037556399 2.3048554e-38 289 270
-0.037503798 0.713 -0.037503798 2.1756742e-38 290 270
-0.036151983 0.71100003 -0.037398599 1.8991233e-38 291 270
-0.034905359 0.71100003 -0.037398599 1.7883451e-38 292 270
-0.033611398 0.70999998 -0.037345998 1.7422831e-38 293 270
-0.03227536 0.708 -0.0372408 1.641264e-38 294 270
-0.031034 0.708 -0.0372408 1.5306292e-38 295 270
-0.029750559 0.70700002 -0.037188202 1.4475109e-38 296 270
-0.028470624 0.70599997 -0.037135597 1.5120478e-38 297 270
-0.027155625 0.704 -0.037030395 1.6501981e-38 298 270
-0.02592128 0.704 -0.037030395 1.6041361e-38 299 270
-0.024651866 0.70300001 -0.036977798 1.4110641e-38 300 270
-0.023419274 0.70300001 -0.036977798 1.3925891e-38 301 270
-0.022123558 0.70099998 -0.036872596 1.4380746e-38 302 270
-0.020894472 0.70099998 -0.036872596 1.2444637e-38 303 270
-0.019665385 0.70099998 -0.036872596 1.2984115e-38 304 270
-0.018409999 0.69999999 -0.036819998 1.1416789e-38 305 270
-0.017182667 0.69999999 -0.036819998 9.8300513e-39 306 270
-0.015955333 0.69999999 -0.036819998 1.5730572e-38 307 270
-0.01468592 0.69800001 -0.0367148 1.6966204e-38 308 270
-0.013462093 0.69800001 -0.0367148 1.6966204e-38 309 270
-0.012238266 0.69800001 -0.0367148 1.540681e-38 310 270
-0.01101444 0.69800001 -0.0367148 1.4208267e-38 311 270
-0.0097906133 0.69800001 -0.0367148 1.2551636e-38 312 270
-0.0085667865 0.69800001 -0.0367148 1.1168702e-38 313 270
-0.0073429602 0.69800001 -0.0367148 1.2364368e-38 314 270
-0.006119133 0.69800001 -0.0367148 1.2456564e-38 315 270
-0.0049093333 0.69999999 -0.036819998 1.1996662e-38 316 270
-0.0036714801 0.69800001 -0.0367148 1.1628238e-38 317 270
-0.0024476533 0.69800001 -0.0367148 1.1719355e-38 318 270
-0.0012273333 0.69999999 -0.036819998 1.181155e-38 319 270
0 0.69999999 -0.036819998 1.1994144e-38 320 270
0.0012273333 0.69999999 -0.036819998 1.2086339e-38 321 270
0.0024476533 0.69800001 -0.0367148 1.2087414e-38 322 270
0.0036714801 0.69800001 -0.0367148 1.1902664e-38 323 270
0.0048953067 0.69800001 -0.0367148 1.2085614e-38 324 270
0.0061366665 0.69999999 -0.036819998 1.2177809e-38 325 270
0.0073639993 0.69999999 -0.036819998 1.2637698e-38 326 270
0.0085913334 0.69999999 -0.036819998 1.2637698e-38 327 270
0.0098326923 0.70099998 -0.036872596 1.2821367e-38 328 270
0.01109334 0.70300001 -0.036977798 1.2636617e-38 329 270
0.012343466 0.704 -0.037030395 1.2358588e-38 330 270
0.013616386 0.70599997 -0.037135597 1.2174197e-38 331 270
0.01487528 0.70700002 -0.037188202 1.2081275e-38 332 270
0.01613768 0.708 -0.0372408 1.1712853e-38 333 270
0.017379038 0.708 -0.0372408 1.0332435e-38 334 270
0.018672999 0.70999998 -0.037345998 1.0516828e-38 335 270
0.01994592 0.71100003 -0.037398599 1.2177791e-38 336 270
0.021192541 0.71100003 -0.037398599 1.1624976e-38 337 270
0.022502279 0.713 -0.037503798 1.2267446e-38 338 270
0.02378572 0.71399999 -0.037556399 1.7522597e-38 339 270
0.025037598 0.71399999 -0.037556399 2.0744745e-38 340 270
0.026289478 0.71399999 -0.037556399 2.2035484e-38 341 270
-0.037503798 0.713 -0.038753927 2.1297566e-38 290 271
-0.036151983 0.71100003 -0.038645219 1.9176708e-38 291 271
-0.034905359 0.71100003 -0.038645219 1.761083e-38 292 271
-0.033611398 0.70999998 -0.038590867 1.6689232e-38 293 271
-0.03227536 0.708 -0.038482159 1.5860187e-38 294 271
-0.031034 0.708 -0.038482159 1.5767633e-38 295 271
-0.029750559 0.70700002 -0.038427804 1.5768362e-38 296 271
-0.028470624 0.70599997 -0.038373452 1.6044949e-38 297 271
-0.027155625 0.704 -0.038264744 1.6045321e-38 298 271
-0.02592128 0.704 -0.038264744 1.5584342e-38 299 271
-0.024651866 0.70300001 -0.038210396 1.3746913e-38 300 271
-0.023419274 0.70300001 -0.038210396 1.4392283e-38 301 271
-0.022123558 0.70099998 -0.038101684 1.6323366e-38 302 271
-0.020894472 0.70099998 -0.038101684 1.6508117e-38 303 271
-0.019665385 0.70099998 -0.038101684 1.6409784e-38 304 271
-0.018436298 0.70099998 -0.038101684 1.3828308e-38 305 271
-0.017182667 0.69999999 -0.038047329 1.0499541e-38 306 271
-0.015955333 0.69999999 -0.038047329 1.2343454e-38 307 271
-0.014727999 0.69999999 -0.038047329 1.6323353e-38 308 271
-0.013500666 0.69999999 -0.038047329 1.6507744e-38 309 271
-0.012238266 0.69800001 -0.037938625 1.5223495e-38 310 271
-0.01101444 0.69800001 -0.037938625 1.4116787e-38 311 271
-0.0097906133 0.69800001 -0.037938625 1.3010444e-38 312 271
-0.0085667865 0.69800001 -0.037938625 1.1811901e-38 313 271
-0.0073429602 0.69800001 -0.037938625 1.2364719e-38 314 271
-0.0061366665 0.69999999 -0.038047329 1.2549469e-38 315 271
-0.0049093333 0.69999999 -0.038047329 1.2087411e-38 316 271
-0.0036819996 0.69999999 -0.038047329 1.1626435e-38 317 271
-0.0024546667 0.69999999 -0.038047329 1.1717553e-38 318 271
-0.0012273333 0.69999999 -0.038047329 1.180975e-38 319 271
0 0.69999999 -0.038047329 1.1533166e-38 320 271
0.0012273333 0.69999999 -0.038047329 1.1809752e-38 321 271
0.0024546667 0.69999999 -0.038047329 1.2176737e-38 322 271
0.0036819996 0.69999999 -0.038047329 1.2176737e-38 323 271
0.0049093333 0.69999999 -0.038047329 1.1627159e-38 324 271
0.0061366665 0.69999999 -0.038047329 1.1627159e-38 325 271
0.0073639993 0.69999999 -0.038047329 1.199485e-38 326 271
0.0085913334 0.69999999 -0.038047329 1.2455468e-38 327 271
0.0098326923 0.70099998 -0.038101684 1.3556765e-38 328 271
0.01109334 0.70300001 -0.038210396 1.3095787e-38 329 271
0.012343466 0.704 -0.038264744 1.1898316e-38 330 271
0.013616386 0.70599997 -0.038373452 1.1252947e-38 331 271
0.01487528 0.70700002 -0.038427804 1.0882738e-38 332 271
0.01613768 0.708 -0.038482159 1.0329565e-38 333 271
0.017428132 0.70999998 -0.038590867 1.1160764e-38 334 271
0.0186993 0.71100003 -0.038645219 1.1898329e-38 335 271
0.01994592 0.71100003 -0.038645219 1.1810089e-38 336 271
0.021252153 0.713 -0.038753927 1.1164719e-38 337 271
0.022533838 0.71399999 -0.038808275 1.2451124e-38 338 271
0.023852346 0.71600002 -0.038916986 1.7521525e-38 339 271
0.025107734 0.71600002 -0.038916986 2.0928058e-38 340 271
0.026363119 0.71600002 -0.038916986 2.2310992e-38 341 271
-0.037556399 0.71399999 -0.040060159 2.083731e-38 290 272
-0.036253672 0.713 -0.040004052 1.7886691e-38 291 272
-0.034905359 0.71100003 -0.039891839 1.5126232e-38 292 272
-0.033658739 0.71100003 -0.039891839 1.5495375e-38 293 272
-0.032366529 0.70999998 -0.039835732 1.6597402e-38 294 272
-0.031121666 0.70999998 -0.039835732 1.5952033e-38 295 272
-0.02979264 0.708 -0.039723519 1.4387951e-38 296 272
-0.028510952 0.70700002 -0.039667413 1.4295397e-38 297 272
-0.027232772 0.70599997 -0.039611302 1.4297567e-38 298 272
-0.02592128 0.704 -0.039499093 1.4297567e-38 299 272
-0.024686933 0.704 -0.039499093 1.3285586e-38 300 272
-0.023419274 0.70300001 -0.039442986 1.2640217e-38 301 272
-0.02218668 0.70300001 -0.039442986 1.4114996e-38 302 272
-0.020954086 0.70300001 -0.039442986 1.5036593e-38 303 272
-0.019721493 0.70300001 -0.039442986 1.6416998e-38 304 272
-0.018488899 0.70300001 -0.039442986 1.6140409e-38 305 272
-0.017207211 0.70099998 -0.039330769 1.4664908e-38 306 272
-0.015978126 0.70099998 -0.039330769 1.4480515e-38 307 272
-0.014727999 0.69999999 -0.039274666 1.5314243e-38 308 272
-0.013500666 0.69999999 -0.039274666 1.559047e-38 309 272
-0.012273333 0.69999999 -0.039274666 1.5223139e-38 310 272
-0.01101444 0.69800001 -0.039162453 1.4208987e-38 311 272
-0.0097906133 0.69800001 -0.039162453 1.3745488e-38 312 272
-0.0085667865 0.69800001 -0.039162453 1.2731336e-38 313 272
-0.0073429602 0.69800001 -0.039162453 1.2732059e-38 314 272
-0.0061366665 0.69999999 -0.039274666 1.3377429e-38 315 272
-0.0049093333 0.69999999 -0.039274666 1.3100121e-38 316 272
-0.0036819996 0.69999999 -0.039274666 1.291573e-38 317 272
-0.0024546667 0.69999999 -0.039274666 1.3007923e-38 318 272
-0.0012273333 0.69999999 -0.039274666 1.3468901e-38 319 272
0 0.69999999 -0.039274666 1.337635e-38 320 272
0.0012273333 0.69999999 -0.039274666 1.291573e-38 321 272
0.0024546667 0.69999999 -0.039274666 1.2361482e-38 322 272
0.0036819996 0.69999999 -0.039274666 1.2545871e-38 323 272
0.0049093333 0.69999999 -0.039274666 1.2914655e-38 324 272
0.0061366665 0.69999999 -0.039274666 1.2269286e-38 325 272
0.0073745195 0.70099998 -0.039330769 1.0613357e-38 326 272
0.0086036054 0.70099998 -0.039330769 8.0318799e-39 327 272
0.0098607466 0.70300001 -0.039442986 9.9604225e-39 328 272
0.011109119 0.704 -0.039499093 9.7763914e-39 329 272
0.012378532 0.70599997 -0.039611302 1.0235202e-38 330 272
0.013616386 0.70599997 -0.039611302 1.1618136e-38 331 272
0.01487528 0.70700002 -0.039667413 1.1898685e-38 332 272
0.01613768 0.708 -0.039723519 1.1529903e-38 333 272
0.017428132 0.70999998 -0.039835732 1.1165789e-38 334 272
0.0186993 0.71100003 -0.039891839 1.1534573e-38 335 272
0.020030079 0.71399999 -0.040060159 1.1625692e-38 336 272
0.021281958 0.71399999 -0.040060159 1.1164714e-38 337 272
0.022596961 0.71600002 -0.040172372 1.2911743e-38 338 272
0.023852346 0.71600002 -0.040172372 1.7429328e-38 339 272
0.025107734 0.71600002 -0.040172372 2.0928777e-38 340 272
0.026363119 0.71600002 -0.040172372 2.2219515e-38 341 272
-0.037661601 0.71600002 -0.041427758 2.0100105e-38 290 273
-0.036253672 0.713 -0.041254178 1.5675075e-38 291 273
-0.035003547 0.713 -0.041254178 1.3191926e-38 292 273
-0.033658739 0.71100003 -0.041138459 1.4851087e-38 293 273
-0.032412119 0.71100003 -0.041138459 1.6783605e-38 294 273
-0.031121666 0.70999998 -0.041080594 1.6322987e-38 295 273
-0.02979264 0.708 -0.040964879 1.5123365e-38 296 273
-0.02855128 0.708 -0.040964879 1.4662387e-38 297 273
-0.027232772 0.70599997 -0.040849157 1.4204651e-38 298 273
-0.02592128 0.704 -0.040733438 1.4296847e-38 299 273
-0.024686933 0.704 -0.040733438 1.3746194e-38 300 273
-0.023419274 0.70300001 -0.040675577 1.3377053e-38 301 273
-0.02218668 0.70300001 -0.040675577 1.3375264e-38 302 273
-0.020954086 0.70300001 -0.040675577 1.4020633e-38 303 273
-0.019749546 0.704 -0.040733438 1.5038032e-38 304 273
-0.018488899 0.70300001 -0.040675577 1.6144019e-38 305 273
-0.017256306 0.70300001 -0.040675577 1.6144375e-38 306 273
-0.016023712 0.70300001 -0.040675577 1.5867429e-38 307 273
-0.014749039 0.70099998 -0.040559858 1.5499003e-38 308 273
-0.013500666 0.69999999 -0.040502001 1.5314612e-38 309 273
-0.012273333 0.69999999 -0.040502001 1.5407173e-38 310 273
-0.011045999 0.69999999 -0.040502001 1.4393381e-38 311 273
-0.0098186666 0.69999999 -0.040502001 1.2827848e-38 312 273
-0.0085913334 0.69999999 -0.040502001 1.0799544e-38 313 273
-0.0073639993 0.69999999 -0.040502001 1.1534958e-38 314 273
-0.0061366665 0.69999999 -0.040502001 1.2549469e-38 315 273
-0.0049093333 0.69999999 -0.040502001 1.3007941e-38 316 273
-0.0036819996 0.69999999 -0.040502001 1.2546964e-38 317 273
-0.0024546667 0.69999999 -0.040502001 1.2549469e-38 318 273
-0.0012273333 0.69999999 -0.040502001 1.3010088e-38 319 273
0 0.69999999 -0.040502001 1.383661e-38 320 273
0.0012273333 0.69999999 -0.040502001 1.3006851e-38 321 273
0.0024546667 0.69999999 -0.040502001 1.0703408e-38 322 273
0.0036819996 0.69999999 -0.040502001 1.0703408e-38 323 273
0.0049093333 0.69999999 -0.040502001 9.789359e-39 324 273
0.0061454331 0.70099998 -0.040559858 1.015814e-38 325 273
0.0073745195 0.70099998 -0.040559858 1.0243111e-38 326 273
0.0086281532 0.70300001 -0.040675577 8.8601762e-39 327 273
0.0098747732 0.704 -0.040733438 8.6790065e-39 328 273
0.011109119 0.704 -0.040733438 9.047789e-39 329 273
0.012378532 0.70599997 -0.040849157 1.0978155e-38 330 273
0.013616386 0.70599997 -0.040849157 1.2361089e-38 331 273
0.01487528 0.70700002 -0.040907022 1.2453286e-38 332 273
0.01613768 0.708 -0.040964879 1.2084502e-38 333 273
0.017428132 0.70999998 -0.041080594 1.1992304e-38 334 273
0.018751899 0.713 -0.041254178 1.2084499e-38 335 273
0.020030079 0.71399999 -0.041312039 1.1991598e-38 336 273
0.021341572 0.71600002 -0.041427758 1.1623174e-38 337 273
0.02262852 0.71700001 -0.041485619 1.2913547e-38 338 273
0.023852346 0.71600002 -0.041427758 1.7338578e-38 339 273
0.025107734 0.71600002 -0.041427758 2.0654715e-38 340 273
0.026363119 0.71600002 -0.041427758 2.1760702e-38 341 273
-0.037661601 0.71600002 -0.042683143 1.945689e-38 290 274
-0.036304519 0.71399999 -0.042563915 1.3464175e-38 291 274
-0.035052639 0.71399999 -0.042563915 1.0888474e-38 292 274
-0.033753417 0.713 -0.042504307 1.3377755e-38 293 274
-0.032503292 0.713 -0.042504307 1.5585785e-38 294 274
-0.031165501 0.71100003 -0.042385083 1.5585785e-38 295 274
-0.029876797 0.70999998 -0.042325463 1.6321188e-38 296 274
-0.02855128 0.708 -0.042206239 1.6505581e-38 297 274
-0.027271347 0.70700002 -0.042146627 1.4942214e-38 298 274
-0.02603174 0.70700002 -0.042146627 1.4296844e-38 299 274
-0.024686933 0.704 -0.041967787 1.3745838e-38 300 274
-0.023452586 0.704 -0.041967787 1.3745838e-38 301 274
-0.022218239 0.704 -0.041967787 1.3466383e-38 302 274
-0.020983893 0.704 -0.041967787 1.2821014e-38 303 274
-0.019749546 0.704 -0.041967787 1.3012245e-38 304 274
-0.018515198 0.704 -0.041967787 1.4210429e-38 305 274
-0.017256306 0.70300001 -0.041908171 1.4948353e-38 306 274
-0.016023712 0.70300001 -0.041908171 1.5040548e-38 307 274
-0.014749039 0.70099998 -0.041788943 1.4856152e-38 308 274
-0.013519952 0.70099998 -0.041788943 1.4948347e-38 309 274
-0.012273333 0.69999999 -0.041729331 1.5316058e-38 310 274
-0.011045999 0.69999999 -0.041729331 1.4117515e-38 311 274
-0.0098186666 0.69999999 -0.041729331 1.1815488e-38 312 274
-0.0085913334 0.69999999 -0.041729331 7.3904565e-39 313 274
-0.0073639993 0.69999999 -0.041729331 8.034398e-39 314 274
-0.0061366665 0.69999999 -0.041729331 8.3109835e-39 315 274
-0.0049093333 0.69999999 -0.041729331 6.9324043e-39 316 274
-0.0036819996 0.69999999 -0.041729331 6.4717849e-39 317 274
-0.0024546667 0.69999999 -0.041729331 4.6365211e-39 318 274
-0.0012273333 0.69999999 -0.041729331 4.3599342e-39 319 274
0 0.69999999 -0.041729331 9.8747387e-39 320 274
0.0012273333 0.69999999 -0.041729331 9.9669343e-39 321 274
0.0024546667 0.69999999 -0.041729331 9.0377753e-39 322 274
0.0036819996 0.69999999 -0.041729331 8.2076559e-39 323 274
0.0049163462 0.70099998 -0.041788943 4.1830637e-39 324 274
0.0061629666 0.70300001 -0.041908171 6.856737e-39 325 274
0.0073955595 0.70300001 -0.041908171 1.291249e-38 326 274
0.0086281532 0.70300001 -0.041908171 1.208273e-38 327 274
0.0098747732 0.704 -0.041967787 1.1075036e-38 328 274
0.011109119 0.704 -0.041967787 1.162821e-38 329 274
0.012378532 0.70599997 -0.042087011 1.3004308e-38 330 274
0.013616386 0.70599997 -0.042087011 1.2912112e-38 331 274
0.01487528 0.70700002 -0.042146627 1.1993751e-38 332 274
0.016183265 0.70999998 -0.042325463 1.180936e-38 333 274
0.01745268 0.71100003 -0.042385083 1.1807922e-38 334 274
0.018751899 0.713 -0.042504307 1.2084149e-38 335 274
0.020030079 0.71399999 -0.042563915 1.2451853e-38 336 274
0.021341572 0.71600002 -0.042683143 1.2267822e-38 337 274
0.02262852 0.71700001 -0.042742759 1.3097207e-38 338 274
0.02388566 0.71700001 -0.042742759 1.7154173e-38 339 274
0.0251428 0.71700001 -0.042742759 2.0560717e-38 340 274
0.02639994 0.71700001 -0.042742759 2.2220599e-38 341 274
-0.036406212 0.71600002 -0.043938532 1.3923711e-38 291 275
-0.035052639 0.71399999 -0.043815799 1.0425334e-38 292 275
-0.033800758 0.71399999 -0.043815799 1.2177051e-38 293 275
-0.032548878 0.71399999 -0.043815799 1.3742591e-38 294 275
-0.031253166 0.713 -0.043754432 1.4572712e-38 295 275
-0.029918881 0.71100003 -0.043631699 1.5492874e-38 296 275
-0.028631933 0.70999998 -0.043570329 1.5492874e-38 297 275
-0.027309919 0.708 -0.043447599 1.4483033e-38 298 275
-0.02603174 0.70700002 -0.043386232 1.4299002e-38 299 275
-0.024686933 0.704 -0.043202132 1.4116056e-38 300 275
-0.023452586 0.704 -0.043202132 1.4392283e-38 301 275
-0.022218239 0.704 -0.043202132 1.4388341e-38 302 275
-0.020983893 0.704 -0.043202132 1.3558579e-38 303 275
-0.019749546 0.704 -0.043202132 1.3104793e-38 304 275
-0.018515198 0.704 -0.043202132 1.4118586e-38 305 275
-0.017280852 0.704 -0.043202132 1.5131665e-38 306 275
-0.016023712 0.70300001 -0.043140765 1.5131665e-38 307 275
-0.014791119 0.70300001 -0.043140765 1.5131662e-38 308 275
-0.013558527 0.70300001 -0.043140765 1.5223858e-38 309 275
-0.012290866 0.70099998 -0.043018032 1.5408253e-38 310 275
-0.011061779 0.70099998 -0.043018032 1.420971e-38 311 275
-0.0098326923 0.70099998 -0.043018032 1.2825311e-38 312 275
-0.0085913334 0.69999999 -0.042956665 1.0151638e-38 313 275
-0.0073639993 0.69999999 -0.042956665 9.5048393e-39 314 275
-0.0061366665 0.69999999 -0.042956665 8.3984918e-39 315 275
-0.0049093333 0.69999999 -0.042956665 5.4601707e-39 316 275
-0.0036819996 0.69999999 -0.042956665 5.275778e-39 317 275
-0.0024546667 0.69999999 -0.042956665 3.0721073e-39 318 275
-0.0012273333 0.69999999 -0.042956665 2.9799116e-39 319 275
0 0.70099998 -0.043018032 1.0152417e-38 320 275
0.0012290865 0.70099998 -0.043018032 1.1535352e-38 321 275
0.0024581731 0.70099998 -0.043018032 1.2265676e-38 322 275
0.0036977797 0.70300001 -0.043140765 1.1620307e-38 323 275
0.0049303733 0.70300001 -0.043140765 9.5102525e-39 324 275
0.0061629666 0.70300001 -0.043140765 9.6946452e-39 325 275
0.0074060797 0.704 -0.043202132 1.1259095e-38 326 275
0.0086404262 0.704 -0.043202132 1.1074704e-38 327 275
0.0098747732 0.704 -0.043202132 1.0983938e-38 328 275
0.011109119 0.704 -0.043202132 1.1537112e-38 329 275
0.012378532 0.70599997 -0.043324865 1.2545856e-38 330 275
0.013635674 0.70700002 -0.043386232 1.2453302e-38 331 275
0.01489632 0.708 -0.043447599 1.2361092e-38 332 275
0.016183265 0.70999998 -0.043570329 1.2176342e-38 333 275
0.01745268 0.71100003 -0.043631699 1.2083427e-38 334 275
0.018778199 0.71399999 -0.043815799 1.2175982e-38 335 275
0.020086186 0.71600002 -0.043938532 1.2360739e-38 336 275
0.021341572 0.71600002 -0.043938532 1.2452936e-38 337 275
0.02262852 0.71700001 -0.043999899 1.3005367e-38 338 275
0.02388566 0.71700001 -0.043999899 1.6969779e-38 339 275
0.025212931 0.71899998 -0.044122629 2.0560351e-38 340 275
0.02647358 0.71899998 -0.044122629 2.2311708e-38 341 275
-0.037871998 0.72000003 -0.045446403 2.0928774e-38 290 276
-0.036457058 0.71700001 -0.045257039 1.5858014e-38 291 276
-0.035150826 0.71600002 -0.045193922 1.1067088e-38 292 276
-0.033800758 0.71399999 -0.045067675 1.2173436e-38 293 276
-0.032548878 0.71399999 -0.045067675 1.1806473e-38 294 276
-0.031296998 0.71399999 -0.045067675 1.2912462e-38 295 276
-0.030003037 0.713 -0.045004558 1.4111381e-38 296 276
-0.028631933 0.70999998 -0.044815198 1.4111381e-38 297 276
-0.027309919 0.708 -0.044688959 1.3838387e-38 298 276
-0.02603174 0.70700002 -0.044625837 1.5129126e-38 299 276
-0.024686933 0.704 -0.044436477 1.5774501e-38 300 276
-0.023452586 0.704 -0.044436477 1.5866698e-38 301 276
-0.022218239 0.704 -0.044436477 1.5956741e-38 302 276
-0.020983893 0.704 -0.044436477 1.55876e-38 303 276
-0.019749546 0.704 -0.044436477 1.4578488e-38 304 276
-0.018515198 0.704 -0.044436477 1.4670685e-38 305 276
-0.017280852 0.704 -0.044436477 1.5223142e-38 306 276
-0.016046507 0.704 -0.044436477 1.5223142e-38 307 276
-0.014791119 0.70300001 -0.04437336 1.5223861e-38 308 276
-0.013558527 0.70300001 -0.04437336 1.5223861e-38 309 276
-0.012290866 0.70099998 -0.044247117 1.5223861e-38 310 276
-0.011061779 0.70099998 -0.044247117 1.4117515e-38 311 276
-0.0098326923 0.70099998 -0.044247117 1.3929159e-38 312 276
-0.0085913334 0.69999999 -0.044183996 1.3191235e-38 313 276
-0.0073639993 0.69999999 -0.044183996 1.3925919e-38 314 276
-0.0061366665 0.69999999 -0.044183996 1.3648974e-38 315 276
-0.0049093333 0.69999999 -0.044183996 1.2825695e-38 316 276
-0.0036819996 0.69999999 -0.044183996 1.2825695e-38 317 276
-0.0024546667 0.69999999 -0.044183996 1.2642383e-38 318 276
-0.0012273333 0.69999999 -0.044183996 1.2550187e-38 319 276
0 0.70300001 -0.04437336 1.2640582e-38 320 276
0.0012325933 0.70300001 -0.04437336 1.2732778e-38 321 276
0.0024651866 0.70300001 -0.04437336 1.4107431e-38 322 276
0.0036977797 0.70300001 -0.04437336 1.3001442e-38 323 276
0.0049303733 0.70300001 -0.04437336 1.1069654e-38 324 276
0.0061717331 0.704 -0.044436477 1.0700511e-38 325 276
0.0074060797 0.704 -0.044436477 9.694648e-39 326 276
0.0086404262 0.704 -0.044436477 1.0247822e-38 327 276
0.0098747732 0.704 -0.044436477 1.0617673e-38 328 276
0.011140679 0.70599997 -0.044562716 1.1078652e-38 329 276
0.012396066 0.70700002 -0.044625837 1.2362185e-38 330 276
0.013635674 0.70700002 -0.044625837 1.2177794e-38 331 276
0.01489632 0.708 -0.044688959 1.2176348e-38 332 276
0.01620606 0.71100003 -0.044878319 1.2176348e-38 333 276
0.017501773 0.713 -0.045004558 1.180792e-38 334 276
0.018778199 0.71399999 -0.045067675 1.2176342e-38 335 276
0.020086186 0.71600002 -0.045193922 1.2913547e-38 336 276
0.021341572 0.71600002 -0.045193922 1.2821351e-38 337 276
0.02262852 0.71700001 -0.045257039 1.3095763e-38 338 276
0.02388566 0.71700001 -0.045257039 1.7244568e-38 339 276
0.025248 0.72000003 -0.045446403 2.0928777e-38 340 276
0.026510401 0.72000003 -0.045446403 2.2035484e-38 341 276
-0.037871998 0.72000003 -0.0467088 2.1758174e-38 290 277
-0.036558751 0.71899998 -0.046643924 1.806999e-38 291 277
-0.035150826 0.71600002 -0.046449307 1.3091426e-38 292 277
-0.033800758 0.71399999 -0.046319555 1.2446057e-38 293 277
-0.032548878 0.71399999 -0.046319555 1.1617761e-38 294 277
-0.031296998 0.71399999 -0.046319555 1.1617761e-38 295 277
-0.030003037 0.713 -0.046254687 1.1800735e-38 296 277
-0.028672259 0.71100003 -0.046124939 1.3367701e-38 297 277
-0.027387066 0.70999998 -0.046060063 1.3010428e-38 298 277
-0.026068559 0.708 -0.045930319 1.5314959e-38 299 277
-0.024792133 0.70700002 -0.045865446 1.6785779e-38 300 277
-0.023519212 0.70599997 -0.04580057 1.7062367e-38 301 277
-0.022281358 0.70599997 -0.04580057 1.6695745e-38 302 277
-0.021043506 0.70599997 -0.04580057 1.6234767e-38 303 277
-0.019805651 0.70599997 -0.04580057 1.5591922e-38 304 277
-0.018515198 0.704 -0.045670826 1.540717e-38 305 277
-0.017280852 0.704 -0.045670826 1.5223858e-38 306 277
-0.016046507 0.704 -0.045670826 1.5223858e-38 307 277
-0.014791119 0.70300001 -0.04560595 1.5407173e-38 308 277
-0.013558527 0.70300001 -0.04560595 1.5223142e-38 309 277
-0.012325933 0.70300001 -0.04560595 1.485652e-38 310 277
-0.01109334 0.70300001 -0.04560595 1.3750174e-38 311 277
-0.0098607466 0.70300001 -0.04560595 1.3470716e-38 312 277
-0.0086281532 0.70300001 -0.04560595 1.1995944e-38 313 277
-0.0073745195 0.70099998 -0.045476202 1.2456567e-38 314 277
-0.0061454331 0.70099998 -0.045476202 1.2456567e-38 315 277
-0.0049163462 0.70099998 -0.045476202 1.2364724e-38 316 277
-0.0036872597 0.70099998 -0.045476202 1.245692e-38 317 277
-0.0024581731 0.70099998 -0.045476202 1.2732784e-38 318 277
-0.0012325933 0.70300001 -0.04560595 1.2548034e-38 319 277
0 0.70300001 -0.04560595 1.2086695e-38 320 277
0.0012325933 0.70300001 -0.04560595 1.2178891e-38 321 277
0.0024686933 0.704 -0.045670826 1.2913925e-38 322 277
0.0037030398 0.704 -0.045670826 1.2084525e-38 323 277
0.0049373866 0.704 -0.045670826 1.1529906e-38 324 277
0.0061717331 0.704 -0.045670826 1.1622102e-38 325 277
0.0074060797 0.704 -0.045670826 1.0888152e-38 326 277
0.0086404262 0.704 -0.045670826 1.0519011e-38 327 277
0.0099028256 0.70599997 -0.04580057 9.8826294e-39 328 277
0.011140679 0.70599997 -0.04580057 1.0988977e-38 329 277
0.012396066 0.70700002 -0.045865446 1.2913559e-38 330 277
0.013654959 0.708 -0.045930319 1.2175994e-38 331 277
0.014938398 0.70999998 -0.046060063 1.1623537e-38 332 277
0.01620606 0.71100003 -0.046124939 1.1716093e-38 333 277
0.017501773 0.713 -0.046254687 1.1898319e-38 334 277
0.018778199 0.71399999 -0.046319555 1.2358938e-38 335 277
0.020086186 0.71600002 -0.046449307 1.2914263e-38 336 277
0.021371379 0.71700001 -0.046514176 1.2637676e-38 337 277
0.02262852 0.71700001 -0.046514176 1.3095763e-38 338 277
0.02388566 0.71700001 -0.046514176 1.7428959e-38 339 277
0.025248 0.72000003 -0.0467088 2.0652916e-38 340 277
0.026510401 0.72000003 -0.0467088 2.1482676e-38 341 277
-0.036609601 0.72000003 -0.0479712 1.9361808e-38 291 278
-0.035298105 0.71899998 -0.04790457 1.4657679e-38 292 278
-0.03389544 0.71600002 -0.047704693 1.2260594e-38 293 278
-0.032640055 0.71600002 -0.047704693 1.1709603e-38 294 278
-0.031296998 0.71399999 -0.047571439 1.1894353e-38 295 278
-0.030045118 0.71399999 -0.047571439 9.590198e-39 296 278
-0.028672259 0.71100003 -0.047371563 9.6823937e-39 297 278
-0.027387066 0.70999998 -0.047304932 9.5984797e-39 298 278
-0.026142199 0.70999998 -0.047304932 1.2825327e-38 299 278
-0.024827199 0.708 -0.047171678 1.5679798e-38 300 278
-0.023552528 0.70700002 -0.047105055 1.6694309e-38 301 278
-0.022281358 0.70599997 -0.047038425 1.6513152e-38 302 278
-0.021043506 0.70599997 -0.047038425 1.6236925e-38 303 278
-0.019805651 0.70599997 -0.047038425 1.5959981e-38 304 278
-0.018567799 0.70599997 -0.047038425 1.5683395e-38 305 278
-0.017280852 0.704 -0.046905171 1.5591922e-38 306 278
-0.016046507 0.704 -0.046905171 1.5499726e-38 307 278
-0.014812159 0.704 -0.046905171 1.5132743e-38 308 278
-0.013577812 0.704 -0.046905171 1.5132743e-38 309 278
-0.012343466 0.704 -0.046905171 1.5132745e-38 310 278
-0.01109334 0.70300001 -0.046838548 1.4026038e-38 311 278
-0.0098607466 0.70300001 -0.046838548 1.3194488e-38 312 278
-0.0086281532 0.70300001 -0.046838548 1.1350575e-38 313 278
-0.0073955595 0.70300001 -0.046838548 1.1260542e-38 314 278
-0.0061629666 0.70300001 -0.046838548 1.1445292e-38 315 278
-0.0049303733 0.70300001 -0.046838548 1.1811197e-38 316 278
-0.0036977797 0.70300001 -0.046838548 1.1995588e-38 317 278
-0.0024651866 0.70300001 -0.046838548 1.2271454e-38 318 278
-0.0012325933 0.70300001 -0.046838548 1.2179257e-38 319 278
0 0.704 -0.046905171 1.1811913e-38 320 278
0.0012343467 0.704 -0.046905171 1.1996665e-38 321 278
0.0024686933 0.704 -0.046905171 1.2732778e-38 322 278
0.0037030398 0.704 -0.046905171 1.1903017e-38 323 278
0.0049373866 0.704 -0.046905171 1.1530625e-38 324 278
0.0061892662 0.70599997 -0.047038425 1.1715016e-38 325 278
0.0074271196 0.70599997 -0.047038425 1.0517562e-38 326 278
0.0086649731 0.70599997 -0.047038425 1.0609758e-38 327 278
0.0099028256 0.70599997 -0.047038425 1.0522964e-38 328 278
0.011140679 0.70599997 -0.047038425 1.1813703e-38 329 278
0.012396066 0.70700002 -0.047105055 1.3006475e-38 330 278
0.013654959 0.708 -0.047171678 1.2361106e-38 331 278
0.014938398 0.70999998 -0.047304932 1.1807922e-38 332 278
0.01620606 0.71100003 -0.047371563 1.1807922e-38 333 278
0.017501773 0.713 -0.047504812 1.2358938e-38 334 278
0.018778199 0.71399999 -0.047571439 1.2819916e-38 335 278
0.020086186 0.71600002 -0.047704693 1.2821711e-38 336 278
0.021371379 0.71700001 -0.04777132 1.2453289e-38 337 278
0.02262852 0.71700001 -0.04777132 1.2912815e-38 338 278
0.02388566 0.71700001 -0.04777132 1.7061619e-38 339 278
0.0251428 0.71700001 -0.04777132 2.0284134e-38 340 278
0.02639994 0.71700001 -0.04777132 2.1205731e-38 341 278
-0.036609601 0.72000003 -0.0492336 2.0006822e-38 291 279
-0.035199918 0.71700001 -0.04902846 1.687145e-38 292 279
-0.033942781 0.71700001 -0.04902846 1.4289972e-38 293 279
-0.032776814 0.71899998 -0.049165215 1.1520157e-38 294 279
-0.031428497 0.71700001 -0.04902846 1.2903092e-38 295 279
-0.03012928 0.71600002 -0.048960082 1.1894013e-38 296 279
-0.028793238 0.71399999 -0.048823316 6.6388617e-39 297 279
-0.027425639 0.71100003 -0.048618179 7.4164562e-40 298 279
-0.026142199 0.70999998 -0.048549797 8.3384125e-40 299 279
-0.024827199 0.708 -0.048413038 1.5004403e-39 300 279
-0.023585839 0.708 -0.048413038 5.3726568e-39 301 279
-0.022312919 0.70700002 -0.048344657 1.0991868e-38 302 279
-0.021073313 0.70700002 -0.048344657 1.3757377e-38 303 279
-0.019805651 0.70599997 -0.048276275 1.6142577e-38 304 279
-0.018567799 0.70599997 -0.048276275 1.5865992e-38 305 279
-0.017329946 0.70599997 -0.048276275 1.5683395e-38 306 279
-0.016092092 0.70599997 -0.048276275 1.55912e-38 307 279
-0.014812159 0.704 -0.048139516 1.531713e-38 308 279
-0.013577812 0.704 -0.048139516 1.5133099e-38 309 279
-0.012343466 0.704 -0.048139516 1.5316055e-38 310 279
-0.011109119 0.704 -0.048139516 1.4394097e-38 311 279
-0.0098747732 0.704 -0.048139516 1.3838059e-38 312 279
-0.0086281532 0.70300001 -0.048071139 1.2454766e-38 313 279
-0.0073955595 0.70300001 -0.048071139 1.1904115e-38 314 279
-0.0061629666 0.70300001 -0.048071139 1.1904115e-38 315 279
-0.0049303733 0.70300001 -0.048071139 1.1720799e-38 316 279
-0.0036977797 0.70300001 -0.048071139 1.1812997e-38 317 279
-0.0024651866 0.70300001 -0.048071139 1.1904468e-38 318 279
-0.0012343467 0.704 -0.048139516 1.1996665e-38 319 279
0 0.704 -0.048139516 1.2088858e-38 320 279
0.0012343467 0.704 -0.048139516 1.1904465e-38 321 279
0.0024757064 0.70599997 -0.048276275 1.1996295e-38 322 279
0.0037135598 0.70599997 -0.048276275 1.1719708e-38 323 279
0.0049514128 0.70599997 -0.048276275 1.2085964e-38 324 279
0.0061892662 0.70599997 -0.048276275 1.2178159e-38 325 279
0.0074271196 0.70599997 -0.048276275 1.2636619e-38 326 279
0.0086649731 0.70599997 -0.048276275 1.2636619e-38 327 279
0.0099028256 0.70599997 -0.048276275 1.2083449e-38 328 279
0.011156459 0.70700002 -0.048344657 1.2452232e-38 329 279
0.0124136 0.708 -0.048413038 1.3096872e-38 330 279
0.013654959 0.708 -0.048413038 1.3096872e-38 331 279
0.014959441 0.71100003 -0.048618179 1.3003592e-38 332 279
0.01620606 0.71100003 -0.048618179 1.2819199e-38 333 279
0.017526319 0.71399999 -0.048823316 1.27288e-38 334 279
0.0188308 0.71600002 -0.048960082 1.2820995e-38 335 279
0.020086186 0.71600002 -0.048960082 1.3004308e-38 336 279
0.021371379 0.71700001 -0.04902846 1.2635884e-38 337 279
0.02262852 0.71700001 -0.04902846 1.2636231e-38 338 279
0.02388566 0.71700001 -0.04902846 1.6785035e-38 339 279
0.0251428 0.71700001 -0.04902846 2.0283054e-38 340 279
0.02639994 0.71700001 -0.04902846 2.1112816e-38 341 279
-0.036558751 0.71899998 -0.050425861 2.04678e-38 291 280
-0.035199918 0.71700001 -0.0502856 1.7887041e-38 292 280
-0.033942781 0.71700001 -0.0502856 1.6320074e-38 293 280
-0.032776814 0.71899998 -0.050425861 1.4287454e-38 294 280
-0.031428497 0.71700001 -0.0502856 1.3457335e-38 295 280
-0.03012928 0.71600002 -0.050215468 1.2174197e-38 296 280
-0.028793238 0.71399999 -0.050075196 7.103437e-39 297 280
-0.027502786 0.713 -0.050005067 6.6001158e-42 298 280
-0.026179021 0.71100003 -0.049864799 4.7980459e-42 299 280
-0.024897331 0.70999998 -0.049794663 1.5848686e-42 300 280
-0.023585839 0.708 -0.049654398 2.828549e-40 301 280
-0.022312919 0.70700002 -0.049584266 2.7918854e-39 302 280
-0.021073313 0.70700002 -0.049584266 1.007534e-38 303 280
-0.019833706 0.70700002 -0.049584266 1.5591571e-38 304 280
-0.018567799 0.70599997 -0.04951413 1.5960354e-38 305 280
-0.017329946 0.70599997 -0.04951413 1.5592272e-38 306 280
-0.016092092 0.70599997 -0.04951413 1.5684467e-38 307 280
-0.014854239 0.70599997 -0.04951413 1.5316408e-38 308 280
-0.013577812 0.704 -0.049373865 1.5316408e-38 309 280
-0.012343466 0.704 -0.049373865 1.5223139e-38 310 280
-0.011109119 0.704 -0.049373865 1.4393378e-38 311 280
-0.0098747732 0.704 -0.049373865 1.3472166e-38 312 280
-0.0086404262 0.704 -0.049373865 1.1443504e-38 313 280
-0.0074060797 0.704 -0.049373865 1.3096198e-38 314 280
-0.0061717331 0.704 -0.049373865 1.2911805e-38 315 280
-0.0049303733 0.70300001 -0.049303733 1.2456564e-38 316 280
-0.0036977797 0.70300001 -0.049303733 1.2549118e-38 317 280
-0.0024686933 0.704 -0.049373865 1.263951e-38 318 280
-0.0012343467 0.704 -0.049373865 1.263951e-38 319 280
0 0.704 -0.049373865 1.1814419e-38 320 280
0.0012378532 0.70599997 -0.04951413 1.1353799e-38 321 280
0.0024757064 0.70599997 -0.04951413 1.1166178e-38 322 280
0.0037135598 0.70599997 -0.04951413 1.1903743e-38 323 280
0.0049514128 0.70599997 -0.04951413 1.300757e-38 324 280
0.0061892662 0.70599997 -0.04951413 1.2823179e-38 325 280
0.0074271196 0.70599997 -0.04951413 1.2364709e-38 326 280
0.0086649731 0.70599997 -0.04951413 1.1719339e-38 327 280
0.0099168532 0.70700002 -0.049584266 1.2543704e-38 328 280
0.011156459 0.70700002 -0.049584266 1.2728096e-38 329 280
0.012448666 0.70999998 -0.049794663 1.2271064e-38 330 280
0.013693533 0.70999998 -0.049794663 1.236326e-38 331 280
0.014959441 0.71100003 -0.049864799 1.2729521e-38 332 280
0.016251646 0.713 -0.050005067 1.2636967e-38 333 280
0.017526319 0.71399999 -0.050075196 1.2729165e-38 334 280
0.0188308 0.71600002 -0.050215468 1.2729165e-38 335 280
0.020114239 0.71700001 -0.0502856 1.2728803e-38 336 280
0.021430992 0.71899998 -0.050425861 1.2451855e-38 337 280
0.022691639 0.71899998 -0.050425861 1.2451121e-38 338 280
0.023952285 0.71899998 -0.050425861 1.6784314e-38 339 280
0.0251428 0.71700001 -0.0502856 2.009902e-38 340 280
0.02639994 0.71700001 -0.0502856 2.1020975e-38 341 280
-0.036558751 0.71899998 -0.05168651 2.04678e-38 291 281
-0.035199918 0.71700001 -0.051542737 1.8255832e-38 292 281
-0.033942781 0.71700001 -0.051542737 1.705729e-38 293 281
-0.032685637 0.71700001 -0.051542737 1.6594511e-38 294 281
-0.031428497 0.71700001 -0.051542737 1.4658762e-38 295 281
-0.03012928 0.71600002 -0.051470853 1.1531676e-38 296 281
-0.028873893 0.71600002 -0.051470853 7.1066445e-39 297 281
-0.02754136 0.71399999 -0.05132708 1.6664381e-39 298 281
-0.026179021 0.71100003 -0.051111419 1.5742411e-39 299 281
-0.024897331 0.70999998 -0.051039528 2.5823338e-39 300 281
-0.023585839 0.708 -0.050895758 5.5402997e-40 301 281
-0.022344479 0.708 -0.050895758 1.9895636e-41 302 281
-0.021103119 0.708 -0.050895758 6.1076883e-39 303 281
-0.019833706 0.70700002 -0.050823875 1.4394823e-38 304 281
-0.018594101 0.70700002 -0.050823875 1.5777759e-38 305 281
-0.017329946 0.70599997 -0.050751984 1.5684114e-38 306 281
-0.016092092 0.70599997 -0.050751984 1.5591919e-38 307 281
-0.014854239 0.70599997 -0.050751984 1.5316411e-38 308 281
-0.013577812 0.704 -0.050608214 1.5316411e-38 309 281
-0.012343466 0.704 -0.050608214 1.5132745e-38 310 281
-0.011109119 0.704 -0.050608214 1.4210429e-38 311 281
-0.0098747732 0.704 -0.050608214 1.328992e-38 312 281
-0.0086404262 0.704 -0.050608214 9.9708776e-39 313 281
-0.0074060797 0.704 -0.050608214 1.2448285e-38 314 281
-0.0061717331 0.704 -0.050608214 1.3093654e-38 315 281
-0.0049373866 0.704 -0.050608214 1.2547671e-38 316 281
-0.0037030398 0.704 -0.050608214 1.2732062e-38 317 281
-0.0024686933 0.704 -0.050608214 1.2364724e-38 318 281
-0.0012343467 0.704 -0.050608214 1.2364724e-38 319 281
0 0.70599997 -0.050751984 1.1906264e-38 320 281
0.0012378532 0.70599997 -0.050751984 1.1260895e-38 321 281
0.0024757064 0.70599997 -0.050751984 1.080027e-38 322 281
0.0037135598 0.70599997 -0.050751984 1.1445639e-38 323 281
0.0049514128 0.70599997 -0.050751984 1.2089211e-38 324 281
0.0061892662 0.70599997 -0.050751984 1.2089211e-38 325 281
0.0074271196 0.70599997 -0.050751984 1.153891e-38 326 281
0.0086649731 0.70599997 -0.050751984 1.0524399e-38 327 281
0.0099168532 0.70700002 -0.050823875 1.2267837e-38 328 281
0.01117224 0.708 -0.050895758 1.2360033e-38 329 281
0.012448666 0.70999998 -0.051039528 1.2268912e-38 330 281
0.01371282 0.71100003 -0.051111419 1.2361109e-38 331 281
0.014959441 0.71100003 -0.051111419 1.2361109e-38 332 281
0.016274439 0.71399999 -0.05132708 1.2361109e-38 333 281
0.017575413 0.71600002 -0.051470853 1.2728447e-38 334 281
0.018857099 0.71700001 -0.051542737 1.2728447e-38 335 281
0.020114239 0.71700001 -0.051542737 1.2635884e-38 336 281
0.021430992 0.71899998 -0.05168651 1.1898319e-38 337 281
0.022691639 0.71899998 -0.05168651 1.2174533e-38 338 281
0.023952285 0.71899998 -0.05168651 1.6876511e-38 339 281
0.025248 0.72000003 -0.051758397 2.0467447e-38 340 281
0.026510401 0.72000003 -0.051758397 2.1112816e-38 341 281
-0.035199918 0.71700001 -0.052799881 1.8440593e-38 292 282
-0.033942781 0.71700001 -0.052799881 1.7334246e-38 293 282
-0.032685637 0.71700001 -0.052799881 1.6782867e-38 294 282
-0.031428497 0.71700001 -0.052799881 1.5768715e-38 295 282
-0.03012928 0.71600002 -0.052726239 1.4571228e-38 296 282
-0.028873893 0.71600002 -0.052726239 1.2173783e-38 297 282
-0.02754136 0.71399999 -0.052578956 7.7469889e-39 298 282
-0.026179021 0.71100003 -0.052358042 5.995632e-39 299 282
-0.024897331 0.70999998 -0.052284397 4.149993e-39 300 282
-0.023585839 0.708 -0.052137118 1.8558096e-40 301 282
-0.022344479 0.708 -0.052137118 1.0883885e-41 302 282
-0.021103119 0.708 -0.052137118 7.2957792e-39 303 282
-0.01986176 0.708 -0.052137118 1.5034785e-38 304 282
-0.018594101 0.70700002 -0.05206348 1.6878339e-38 305 282
-0.017354494 0.70700002 -0.05206348 1.5683398e-38 306 282
-0.016092092 0.70599997 -0.051989835 1.5591203e-38 307 282
-0.014854239 0.70599997 -0.051989835 1.55912e-38 308 282
-0.013616386 0.70599997 -0.051989835 1.55912e-38 309 282
-0.012378532 0.70599997 -0.051989835 1.5316774e-38 310 282
-0.011109119 0.704 -0.051842559 1.4302981e-38 311 282
-0.0098747732 0.704 -0.051842559 1.39324e-38 312 282
-0.0086404262 0.704 -0.051842559 1.1904096e-38 313 282
-0.0074060797 0.704 -0.051842559 1.2912488e-38 314 282
-0.0061717331 0.704 -0.051842559 1.328127e-38 315 282
-0.0049373866 0.704 -0.051842559 1.2822457e-38 316 282
-0.0037030398 0.704 -0.051842559 1.2915011e-38 317 282
-0.0024757064 0.70599997 -0.051989835 1.2915377e-38 318 282
-0.0012378532 0.70599997 -0.051989835 1.3007573e-38 319 282
0 0.70599997 -0.051989835 1.2182128e-38 320 282
0.0012378532 0.70599997 -0.051989835 1.1813347e-38 321 282
